76.658 -4.087 17.221 255 93 93
76.523 -3.936 17.625 255 77 77
76.480 -4.136 17.734 255 3 3
74.069 -8.227 11.054 229 229 229
74.006 -8.076 10.629 51 51 51
73.821 -7.778 11.027 215 215 215
73.822 -7.778 11.206 215 215 215
73.922 -7.958 10.814 11 11 11
76.152 -11.947 12.044 45 45 45
76.036 -11.539 12.215 190 190 190
75.935 -11.429 12.413 193 193 193
74.024 -8.279 12.031 213 213 213
73.633 -8.500 12.378 221 221 221
73.762 -8.464 12.061 110 110 110
73.737 -8.465 12.234 139 139 139
73.640 -8.681 12.371 238 238 238
73.934 -7.919 11.425 205 205 205
73.980 -7.794 11.648 206 206 206
73.943 -7.946 11.809 219 219 219
74.122 -7.114 11.845 34 34 34
73.995 -7.553 12.018 60 60 60
73.990 -8.068 12.240 232 232 232
73.951 -7.330 12.225 45 45 45
73.906 -7.972 11.460 167 167 167
73.856 -7.492 11.607 37 37 37
73.930 -7.504 11.856 14 14 14
73.935 -7.509 12.035 62 62 62
73.949 -7.514 12.216 68 68 68
73.875 -6.777 12.197 110 110 110
74.984 -5.755 12.394 8 8 8
74.241 22.409 12.294 8 8 8
74.896 22.380 12.160 0 0 0
77.746 -15.601 13.490 224 224 224
77.839 -14.378 12.992 96 96 96
78.106 -14.870 12.895 130 130 130
77.891 -14.561 13.059 102 102 102
78.077 -15.150 13.319 113 113 113
78.102 -15.396 13.494 207 207 207
77.200 -13.509 12.680 238 238 238
76.868 -14.192 13.268 6 6 6
77.190 -13.495 13.495 249 249 249
76.905 -13.778 12.808 250 250 250
76.893 -13.778 13.057 253 253 253
77.084 -13.671 13.271 255 255 255
77.085 -13.674 13.524 255 255 255
77.088 -13.149 12.881 153 153 153
77.073 -13.151 13.066 215 215 215
77.115 -13.666 13.286 241 241 241
77.152 -13.174 13.519 136 136 136
75.818 -12.465 12.436 11 11 11
75.821 -12.438 12.643 147 147 147
76.940 -12.916 13.049 121 121 121
75.963 -11.996 12.868 242 242 242
76.622 -12.613 13.193 37 37 37
76.604 -12.609 13.377 61 61 61
75.738 -12.209 13.417 255 255 255
76.054 -11.955 12.887 227 227 227
75.825 -12.449 13.066 108 108 108
76.033 -11.964 13.314 221 221 221
75.709 -12.170 13.435 255 255 255
76.145 -11.755 12.455 231 231 231
76.030 -11.534 12.646 193 193 193
76.118 -11.236 12.872 181 181 181
76.152 -11.759 13.076 236 236 236
76.163 -11.768 13.292 239 239 239
76.182 -11.020 13.281 72 72 72
76.012 -11.272 13.487 195 195 195
76.098 -11.734 12.671 113 113 113
75.941 -11.443 13.029 204 204 204
76.009 -10.997 13.252 68 68 68
76.138 -11.242 13.502 51 51 51
74.962 -9.618 13.450 169 169 169
74.983 -9.590 13.453 161 161 161
74.005 -8.277 12.628 241 241 241
74.744 -9.121 13.003 159 159 159
73.998 -8.286 12.836 233 233 233
73.991 -8.294 13.044 230 230 230
73.691 -8.735 13.182 255 255 255
74.001 -8.285 13.439 235 235 235
73.642 -8.491 13.574 189 189 189
74.045 -8.257 12.658 255 255 255
73.646 -8.693 12.787 255 255 255
75.230 -9.127 13.296 96 96 96
73.704 -8.486 13.178 157 157 157
73.660 -8.718 13.561 252 252 252
73.976 -7.793 12.427 210 210 210
73.993 -7.553 12.617 66 66 66
73.995 -7.560 12.827 72 72 72
73.871 -7.553 13.014 166 166 166
73.992 -7.823 13.145 198 198 198
74.124 -7.341 13.457 57 57 57
76.961 -8.088 12.939 37 37 37
73.661 -7.264 12.589 99 99 99
73.979 -7.785 12.853 48 48 48
73.927 -8.015 13.004 187 187 187
73.948 -7.536 13.230 68 68 68
73.931 -8.027 13.422 193 193 193
74.349 -5.393 12.419 11 11 11
76.709 -4.145 13.234 99 99 99
76.686 -4.142 13.416 91 91 91
76.515 -3.831 13.107 0 0 0
73.426 -4.158 12.713 62 62 62
77.741 -15.605 13.680 204 204 204
77.827 -15.900 13.675 108 108 108
77.855 -15.921 14.122 147 147 147
78.025 -16.203 14.394 178 178 178
77.214 -14.739 14.185 194 194 194
78.098 -15.176 13.954 110 110 110
76.997 -14.431 14.161 198 198 198
76.902 -14.180 14.342 238 238 238
76.751 -13.891 13.674 255 255 255
77.106 -13.198 13.676 190 190 190
76.818 -14.135 13.848 235 235 235
77.120 -13.433 13.899 221 221 221
77.019 -13.707 14.094 255 255 255
76.860 -14.166 14.354 252 252 252
77.132 -13.444 14.361 213 213 213
77.057 -13.948 14.580 180 180 180
76.227 -13.037 14.366 187 187 187
77.090 -13.448 13.736 124 124 124
76.844 -14.179 13.897 113 113 113
76.903 -13.146 14.103 159 159 159
76.851 -14.196 14.334 150 150 150
77.150 -13.710 14.547 175 175 175
75.827 -12.457 13.634 104 104 104
76.522 -12.843 14.010 134 134 134
75.954 -11.992 13.889 241 241 241
75.736 -12.206 14.036 255 255 255
75.961 -11.992 14.294 219 219 219
76.262 -12.543 14.573 180 180 180
76.326 -12.054 14.806 217 217 217
77.365 -12.956 13.940 53 53 53
76.005 -11.978 13.925 195 195 195
76.010 -12.742 14.128 153 153 153
75.863 -12.498 14.296 159 159 159
75.864 -12.505 14.481 102 102 102
76.007 -11.498 13.668 201 201 201
76.186 -11.021 13.903 84 84 84
75.612 -11.198 14.030 170 170 170
75.065 -10.857 14.081 204 204 204
76.008 -11.492 14.510 179 179 179
75.130 -10.869 14.535 177 177 177
75.669 -10.947 14.814 166 166 166
76.115 -11.773 13.713 119 119 119
76.200 -11.046 13.898 45 45 45
76.133 -11.792 14.146 119 119 119
75.960 -11.477 14.330 150 150 150
75.957 -11.481 14.516 136 136 136
76.140 -11.816 14.762 116 116 116
74.832 -10.101 13.873 206 206 206
75.367 -9.426 13.904 54 54 54
74.873 -10.089 14.015 212 212 212
74.622 -10.310 14.199 255 255 255
75.062 -9.876 14.481 211 211 211
75.051 -9.871 14.696 194 194 194
74.905 -10.098 13.642 153 153 153
74.733 -10.557 13.840 127 127 127
75.016 -9.855 13.879 232 232 232
74.601 -10.302 14.000 229 229 229
74.888 -9.595 14.041 164 164 164
74.605 -10.310 14.243 207 207 207
74.131 -9.505 14.139 198 198 198
74.754 -10.575 14.454 221 221 221
75.037 -9.872 14.494 226 226 226
75.199 -10.194 14.731 113 113 113
75.274 -9.179 13.707 96 96 96
74.641 -9.097 14.017 141 141 141
74.005 -8.284 13.862 242 242 242
74.025 -9.255 14.079 235 235 235
73.641 -8.487 13.994 185 185 185
73.857 -8.978 14.243 255 255 255
73.878 -8.981 14.429 184 184 184
74.590 -9.081 14.800 215 215 215
74.130 -8.292 14.706 215 215 215
75.200 -9.132 13.657 102 102 102
73.687 -8.492 13.794 159 159 159
73.671 -8.504 14.006 140 140 140
73.830 -8.984 14.188 255 255 255
73.988 -9.263 14.464 187 187 187
74.015 -8.296 14.453 249 249 249
74.084 -8.308 14.647 195 195 195
74.003 -7.563 13.639 79 79 79
74.103 -7.336 13.816 54 54 54
73.773 -7.533 13.989 150 150 150
73.959 -8.038 14.214 223 223 223
73.968 -8.044 14.429 220 220 220
73.960 -8.042 14.819 225 225 225
73.388 -7.016 14.704 218 218 218
74.119 -7.820 13.654 57 57 57
74.092 -7.815 13.811 64 64 64
73.868 -7.785 14.034 201 201 201
73.951 -8.054 14.261 187 187 187
73.661 -7.545 14.793 221 221 221
77.656 -14.304 15.310 198 198 198
77.628 -14.363 15.110 110 110 110
77.777 -14.611 15.386 159 159 159
78.148 -15.251 15.679 91 91 91
77.176 -13.468 15.005 212 212 212
77.282 -13.724 14.830 207 207 207
77.476 -14.030 15.042 204 204 204
76.987 -13.171 14.919 194 194 194
77.471 -14.031 15.296 209 209 209
76.974 -13.163 15.141 195 195 195
77.482 -14.034 15.489 204 204 204
76.972 -13.158 15.365 196 196 196
77.268 -13.739 14.822 173 173 173
77.123 -13.509 15.241 119 119 119
77.126 -13.517 15.430 119 119 119
77.135 -13.526 15.620 110 110 110
77.136 -13.536 15.872 119 119 119
76.311 -12.051 14.988 215 215 215
76.483 -12.322 15.248 198 198 198
76.846 -12.901 15.560 190 190 190
76.327 -12.055 15.436 209 209 209
76.724 -12.601 15.716 11 11 11
76.704 -12.117 15.922 39 39 39
76.773 -12.889 14.895 176 176 176
76.460 -12.328 15.067 210 210 210
76.463 -12.334 15.256 221 221 221
76.463 -12.339 15.444 212 212 212
76.701 -12.384 15.745 141 141 141
76.824 -12.409 15.960 57 57 57
75.830 -11.229 15.097 178 178 178
75.678 -10.946 15.262 191 191 191
76.008 -11.493 15.541 191 191 191
75.941 -10.987 15.726 118 118 118
76.001 -11.491 15.945 200 200 200
75.822 -11.238 14.861 144 144 144
75.827 -11.247 15.109 142 142 142
75.834 -11.254 15.296 147 147 147
75.842 -11.261 15.483 144 144 144
75.964 -11.287 15.756 212 212 212
75.982 -11.521 15.953 218 218 218
75.216 -10.135 14.934 209 209 209
75.058 -9.871 15.096 209 209 209
75.352 -10.414 15.387 217 217 217
75.057 -9.869 15.533 198 198 198
75.856 -10.481 15.932 49 49 49
74.938 -9.631 15.905 217 217 217
75.201 -10.202 14.913 122 122 122
75.344 -10.437 15.181 176 176 176
75.202 -10.179 15.329 181 181 181
75.245 -10.201 15.556 172 172 172
75.835 -10.525 15.898 34 34 34
74.848 -9.419 15.674 134 134 134
75.169 -9.456 15.954 29 29 29
74.581 -9.069 14.996 210 210 210
74.746 -9.341 15.219 209 209 209
74.283 -8.555 15.112 219 219 219
74.434 -8.828 15.359 219 219 219
74.976 -9.353 15.709 102 102 102
74.388 -8.555 15.573 151 151 151
74.659 -8.859 15.832 83 83 83
74.724 -9.368 14.824 170 170 170
74.733 -9.385 15.042 153 153 153
74.115 -8.317 14.895 221 221 221
74.572 -9.096 15.182 204 204 204
74.571 -9.101 15.365 212 212 212
74.128 -8.328 15.261 227 227 227
74.270 -8.571 15.533 227 227 227
74.461 -8.597 15.756 68 68 68
74.114 -8.344 15.926 68 68 68
73.678 -7.520 14.995 214 214 214
73.831 -7.772 15.226 209 209 209
73.687 -7.519 15.387 198 198 198
73.936 -7.781 15.636 221 221 221
73.982 -7.781 15.865 202 202 202
73.971 -8.080 15.045 176 176 176
73.513 -7.299 14.949 205 205 205
73.668 -7.555 15.155 232 232 232
73.828 -7.808 15.415 215 215 215
73.831 -7.811 15.537 198 198 198
74.046 -7.377 15.881 58 58 58
73.556 -6.792 15.746 95 95 95
73.697 -6.800 15.985 22 22 22
73.693 -6.851 15.994 28 28 28
78.160 -15.279 16.321 142 142 142
78.166 -15.288 16.514 136 136 136
78.167 -15.299 16.771 138 138 138
78.181 -15.313 17.031 150 150 150
76.855 -14.131 16.483 119 119 119
76.851 -14.122 16.864 147 147 147
77.096 -13.179 16.028 211 211 211
76.847 -14.183 16.260 45 45 45
77.093 -13.182 16.214 204 204 204
76.833 -14.182 16.449 62 62 62
77.140 -13.480 16.495 227 227 227
76.835 -14.185 16.641 56 56 56
77.136 -13.484 16.686 238 238 238
76.734 -13.909 16.845 255 255 255
77.100 -13.179 16.855 204 204 204
76.864 -14.211 17.100 40 40 40
77.143 -13.494 17.137 232 232 232
77.072 -13.227 16.223 229 229 229
77.070 -13.234 16.477 226 226 226
77.160 -13.582 16.886 141 141 141
76.938 -13.762 17.096 210 210 210
75.733 -12.195 16.758 255 255 255
75.859 -12.428 16.978 56 56 56
75.723 -12.185 17.162 255 255 255
75.723 -12.249 16.355 255 255 255
76.158 -11.895 16.623 173 173 173
75.865 -12.052 16.813 198 198 198
76.152 -11.774 16.200 236 236 236
75.708 -10.695 16.087 55 55 55
76.161 -11.768 16.418 235 235 235
75.716 -10.695 16.311 43 43 43
75.997 -11.487 16.573 200 200 200
75.978 -11.268 16.786 221 221 221
76.003 -11.492 17.023 200 200 200
75.489 -10.663 16.888 15 15 15
75.986 -11.529 16.204 212 212 212
75.965 -11.309 16.378 224 224 224
75.940 -10.794 16.552 25 25 25
76.070 -11.143 16.833 23 23 23
76.000 -11.554 17.023 221 221 221
76.000 -11.559 17.212 218 218 218
74.946 -9.622 16.096 221 221 221
74.625 -10.311 16.291 204 204 204
74.626 -10.322 16.473 240 240 240
74.943 -9.621 16.716 213 213 213
74.628 -10.311 16.911 245 245 245
74.929 -9.638 17.145 203 203 203
75.772 -10.523 16.071 31 31 31
75.676 -10.278 16.264 39 39 39
74.922 -9.672 16.304 176 176 176
75.067 -9.931 16.592 252 252 252
74.655 -10.398 16.691 209 209 209
75.165 -9.467 16.786 53 53 53
74.652 -10.406 16.936 201 201 201
75.108 -9.495 16.956 53 53 53
74.744 -10.185 17.108 189 189 189
74.678 -8.856 16.024 86 86 86
75.133 -9.364 16.360 47 47 47
74.271 -8.533 16.158 35 35 35
75.163 -9.385 16.543 51 51 51
73.676 -8.476 16.201 173 173 173
73.699 -8.740 16.424 247 247 247
75.215 -9.411 16.981 51 51 51
74.019 -8.272 16.690 255 255 255
73.698 -8.752 16.848 243 243 243
73.690 -8.461 17.032 224 224 224
75.037 -9.176 16.138 6 6 6
74.511 -8.712 16.197 107 107 107
74.154 -8.864 16.304 113 113 113
73.623 -8.517 16.429 243 243 243
73.621 -8.521 16.611 249 249 249
74.890 -9.187 17.155 11 11 11
73.916 -8.351 16.917 244 244 244
73.733 -8.843 17.059 68 68 68
74.165 -7.563 16.098 69 69 69
74.152 -7.563 16.312 63 63 63
73.982 -7.775 16.474 202 202 202
73.886 -7.295 16.627 79 79 79
73.978 -7.776 16.866 204 204 204
74.070 -7.558 17.125 60 60 60
73.949 -7.886 16.057 164 164 164
73.996 -8.124 16.256 193 193 193
73.747 -7.131 16.217 42 42 42
74.156 -7.640 16.531 74 74 74
74.148 -7.644 16.713 71 71 71
74.131 -7.648 16.892 62 62 62
74.021 -8.157 17.111 198 198 198
73.810 -7.369 17.218 101 101 101
73.686 -6.786 16.219 31 31 31
74.229 -5.624 16.717 51 51 51
74.473 -5.494 16.328 34 34 34
74.462 -5.516 17.120 48 48 48
73.546 -5.735 17.145 17 17 17
77.091 -14.590 18.307 159 159 159
77.142 -13.410 17.544 207 207 207
76.855 -14.099 17.951 187 187 187
77.127 -13.393 18.182 198 198 198
76.859 -14.089 18.401 223 223 223
77.153 -13.500 17.332 246 246 246
76.733 -13.916 17.485 251 251 251
76.744 -13.902 17.908 245 245 245
76.747 -13.940 18.106 249 249 249
77.511 -13.102 17.648 48 48 48
77.169 -13.623 17.775 164 164 164
77.052 -13.272 17.944 215 215 215
77.046 -13.277 18.135 201 201 201
76.867 -13.797 18.355 204 204 204
75.843 -12.415 17.477 82 82 82
75.735 -12.201 17.615 255 255 255
75.846 -12.406 17.856 105 105 105
76.518 -12.868 18.231 126 126 126
75.924 -12.012 18.066 224 224 224
75.861 -12.399 18.302 244 244 244
76.983 -13.003 17.273 93 93 93
75.740 -12.283 17.426 255 255 255
75.824 -12.075 17.618 184 184 184
75.811 -12.082 17.865 195 195 195
76.747 -12.802 18.286 93 93 93
75.750 -12.311 18.248 255 255 255
75.977 -11.372 17.241 224 224 224
76.003 -11.502 17.410 210 210 210
75.277 -10.629 17.244 76 76 76
75.996 -11.345 17.664 200 200 200
76.094 -11.629 17.887 207 207 207
76.029 -11.242 18.076 170 170 170
76.050 -11.566 18.316 198 198 198
75.341 -10.641 18.112 120 120 120
74.946 -10.822 18.217 216 216 216
75.954 -11.345 17.438 181 181 181
76.083 -11.184 17.708 42 42 42
76.108 -11.197 17.902 45 45 45
76.025 -11.589 18.102 221 221 221
75.904 -11.369 18.243 144 144 144
75.148 -11.265 18.311 167 167 167
74.628 -10.320 17.313 223 223 223
75.147 -10.605 17.617 56 56 56
74.938 -9.631 17.555 208 208 208
74.895 -10.071 17.744 245 245 245
74.938 -9.633 17.992 201 201 201
75.049 -9.847 18.202 221 221 221
74.781 -10.554 18.380 246 246 246
74.416 -9.581 18.270 164 164 164
75.073 -9.955 17.400 255 255 255
75.066 -9.960 17.585 255 255 255
74.670 -10.439 17.741 176 176 176
75.038 -9.555 17.797 62 62 62
74.704 -10.209 17.963 178 178 178
75.135 -9.464 18.030 74 74 74
74.718 -10.197 18.188 187 187 187
74.975 -9.448 18.179 113 113 113
74.654 -10.372 18.378 184 184 184
74.445 -9.508 18.268 82 82 82
75.057 -9.391 17.383 133 133 133
73.698 -8.724 17.284 255 255 255
75.033 -9.194 17.764 64 64 64
74.018 -8.272 17.522 255 255 255
73.692 -8.721 17.651 238 238 238
74.279 -8.923 17.978 140 140 140
73.695 -8.718 18.083 255 255 255
73.773 -8.861 18.287 255 255 255
74.988 -9.210 17.550 90 90 90
73.899 -8.360 17.280 238 238 238
73.623 -8.671 17.446 167 167 167
73.605 -8.542 17.646 252 252 252
73.598 -8.545 17.829 238 238 238
73.631 -8.700 18.052 153 153 153
73.772 -8.894 18.286 195 195 195
74.000 -7.758 17.308 194 194 194
73.852 -7.285 17.415 110 110 110
74.063 -7.769 17.719 119 119 119
73.977 -8.054 17.915 225 225 225
73.988 -7.767 18.098 166 166 166
73.977 -8.044 18.319 223 223 223
73.919 -7.935 17.504 149 149 149
74.096 -7.669 17.741 74 74 74
74.112 -7.676 17.929 65 65 65
73.929 -7.959 18.116 155 155 155
74.048 -8.207 18.339 212 212 212
73.590 -7.278 18.237 103 103 103
74.444 -5.527 17.546 45 45 45
77.096 -14.606 18.694 130 130 130
77.747 -14.575 19.481 110 110 110
77.122 -13.370 19.082 201 201 201
76.767 -13.859 18.659 147 147 147
76.244 -13.023 19.259 116 116 116
76.258 -13.159 18.523 215 215 215
77.225 -13.683 18.873 102 102 102
77.382 -13.918 19.188 175 175 175
77.246 -13.721 19.584 110 110 110
75.902 -12.526 18.551 206 206 206
75.930 -12.399 18.762 158 158 158
75.969 -12.542 18.951 157 157 157
76.181 -11.820 18.979 214 214 214
75.984 -12.226 19.168 141 141 141
75.888 -12.376 19.387 181 181 181
75.933 -12.544 19.583 154 154 154
75.768 -12.320 18.443 255 255 255
75.987 -12.701 18.670 96 96 96
76.173 -12.942 19.053 68 68 68
76.246 -12.016 19.026 113 113 113
75.862 -12.358 19.165 193 193 193
76.138 -12.194 19.464 96 96 96
75.840 -12.369 19.605 187 187 187
76.167 -11.813 18.592 242 242 242
76.066 -11.589 18.736 202 202 202
74.964 -10.818 18.658 209 209 209
75.708 -11.354 19.041 166 166 166
76.064 -11.583 19.374 208 208 208
75.177 -10.843 19.343 153 153 153
75.496 -10.639 19.597 177 177 177
76.040 -11.611 18.740 207 207 207
74.837 -10.707 18.609 227 227 227
75.317 -11.315 18.979 73 73 73
75.057 -11.110 19.079 82 82 82
75.917 -11.424 19.574 113 113 113
75.059 -9.869 18.654 211 211 211
75.063 -10.371 18.893 151 151 151
74.826 -10.558 19.019 226 226 226
74.904 -9.649 19.019 217 217 217
75.053 -9.868 19.283 204 204 204
74.894 -9.613 19.461 221 221 221
74.958 -9.761 18.598 164 164 164
75.026 -10.440 18.843 119 119 119
74.095 -9.483 18.610 136 136 136
75.249 -10.246 19.146 215 215 215
74.766 -9.443 19.004 221 221 221
75.311 -10.413 19.372 113 113 113
74.842 -9.599 19.231 119 119 119
75.250 -10.256 19.590 221 221 221
74.784 -9.456 19.448 218 218 218
74.008 -9.258 18.564 255 255 255
73.737 -8.433 18.487 196 196 196
74.400 -8.796 18.879 142 142 142
74.500 -8.948 19.092 210 210 210
74.419 -8.795 19.322 224 224 224
74.744 -9.349 19.568 204 204 204
74.276 -8.556 19.427 212 212 212
73.652 -8.722 18.482 153 153 153
73.797 -8.523 18.715 217 217 217
74.356 -8.742 19.079 175 175 175
74.195 -8.451 19.200 212 212 212
74.656 -9.235 19.587 210 210 210
74.076 -8.252 19.392 176 176 176
73.987 -8.100 18.935 227 227 227
73.965 -8.012 19.188 232 232 232
73.805 -7.736 19.289 203 203 203
73.804 -7.717 19.507 206 206 206
73.388 -7.023 19.598 215 215 215
73.505 -7.851 18.822 192 192 192
73.682 -7.670 19.052 147 147 147
73.962 -8.074 19.583 130 130 130
77.265 -13.734 19.782 96 96 96
77.412 -13.783 20.272 11 11 11
77.008 -13.814 20.406 34 34 34
77.023 -13.733 20.557 136 136 136
76.745 -13.874 20.707 204 204 204
76.184 -11.828 19.623 213 213 213
75.864 -12.363 19.763 173 173 173
76.306 -12.428 20.135 144 144 144
75.836 -12.342 20.395 170 170 170
75.916 -12.010 20.597 235 235 235
76.088 -12.202 19.833 71 71 71
76.369 -12.258 20.163 56 56 56
76.582 -12.131 20.383 11 11 11
76.206 -12.248 20.504 102 102 102
76.078 -11.599 19.794 191 191 191
75.964 -11.369 19.977 226 226 226
75.962 -11.368 20.234 222 222 222
76.071 -11.589 20.434 202 202 202
75.686 -10.660 20.286 126 126 126
76.029 -11.171 20.645 107 107 107
75.808 -11.243 19.711 108 108 108
75.782 -10.878 19.925 125 125 125
75.598 -10.654 20.101 147 147 147
75.926 -10.913 20.411 40 40 40
76.032 -11.613 20.688 200 200 200
75.462 -10.460 19.817 189 189 189
75.665 -10.473 20.096 34 34 34
74.946 -9.619 20.108 221 221 221
75.153 -10.062 20.362 116 116 116
75.024 -9.828 20.567 235 235 235
74.642 -10.334 20.648 255 255 255
74.961 -9.571 20.750 229 229 229
75.128 -10.036 19.731 189 189 189
74.987 -9.815 19.854 161 161 161
75.145 -10.051 20.115 113 113 113
75.563 -10.319 20.501 11 11 11
74.991 -9.503 20.325 142 142 142
74.715 -10.208 20.461 161 161 161
74.981 -9.506 20.513 142 142 142
74.626 -10.395 20.688 170 170 170
74.918 -9.685 20.747 104 104 104
74.890 -9.367 19.859 136 136 136
74.309 -8.560 19.687 207 207 207
74.664 -8.819 20.016 40 40 40
74.953 -9.188 20.291 35 35 35
74.358 -8.390 20.111 42 42 42
74.698 -8.971 20.402 102 102 102
73.718 -8.701 20.387 133 133 133
74.255 -8.917 20.722 68 68 68
74.507 -8.980 19.741 143 143 143
74.887 -9.276 20.026 53 53 53
74.078 -8.270 19.825 170 170 170
74.509 -8.516 20.157 17 17 17
74.507 -8.522 20.345 17 17 17
74.116 -8.668 20.508 113 113 113
74.010 -8.300 20.676 227 227 227
73.715 -8.843 20.764 93 93 93
73.962 -8.005 19.810 212 212 212
73.899 -7.520 19.957 70 70 70
74.047 -8.167 20.207 218 218 218
73.669 -7.243 20.090 99 99 99
73.957 -7.998 20.435 221 221 221
73.659 -7.048 20.294 23 23 23
74.044 -8.166 20.645 243 243 243
73.665 -7.239 20.463 107 107 107
73.655 -7.235 20.710 99 99 99
73.636 -7.497 19.691 175 175 175
73.964 -7.728 19.993 107 107 107
74.047 -7.743 20.202 62 62 62
73.910 -7.932 20.420 207 207 207
73.584 -7.169 20.265 164 164 164
73.973 -7.569 20.649 20 20 20
73.893 -7.402 20.775 22 22 22
73.387 -6.939 19.822 153 153 153
73.600 -6.966 20.065 17 17 17
74.340 -5.566 20.454 47 47 47
73.445 -5.544 20.184 144 144 144
77.073 -13.169 21.025 161 161 161
76.715 -13.909 21.609 212 212 212
76.717 -13.921 21.871 227 227 227
75.836 -12.468 20.849 3 3 3
76.149 -11.839 20.905 246 246 246
75.776 -12.141 21.042 236 236 236
75.797 -12.293 21.288 255 255 255
75.830 -12.466 21.497 0 0 0
76.051 -11.936 21.780 250 250 250
75.798 -12.406 20.876 229 229 229
75.796 -12.413 21.069 210 210 210
75.753 -12.161 21.266 196 196 196
75.762 -12.157 21.679 187 187 187
76.004 -10.996 20.843 39 39 39
75.952 -11.366 21.070 215 215 215
76.049 -11.563 21.301 201 201 201
75.883 -10.789 21.229 32 32 32
76.045 -11.553 21.529 192 192 192
75.739 -10.756 21.417 158 158 158
76.017 -10.997 21.691 28 28 28
76.046 -11.556 21.949 195 195 195
76.022 -10.803 21.916 28 28 28
75.954 -11.320 20.826 139 139 139
75.960 -11.493 21.052 173 173 173
75.942 -10.945 21.250 31 31 31
76.100 -11.716 21.579 215 215 215
75.961 -10.964 21.708 28 28 28
76.108 -11.731 21.970 218 218 218
75.918 -10.775 21.915 14 14 14
75.007 -9.801 20.947 225 225 225
75.004 -9.808 21.187 227 227 227
74.991 -10.000 21.366 247 247 247
75.003 -9.801 21.586 226 226 226
75.004 -9.812 21.829 230 230 230
74.700 -10.441 21.975 255 255 255
74.952 -10.056 20.950 249 249 249
74.709 -10.583 21.123 28 28 28
75.029 -9.878 21.190 193 193 193
74.934 -10.069 21.390 249 249 249
75.006 -9.843 21.614 181 181 181
74.665 -10.453 21.703 167 167 167
74.991 -9.541 21.792 153 153 153
74.677 -10.469 21.959 167 167 167
74.071 -8.887 20.900 71 71 71
74.894 -9.179 21.319 49 49 49
73.894 -8.335 21.016 236 236 236
74.211 -8.911 21.342 96 96 96
74.087 -8.892 21.536 45 45 45
73.679 -8.685 21.633 255 255 255
74.935 -9.222 20.938 22 22 22
74.858 -9.139 21.310 17 17 17
73.979 -8.313 21.041 224 224 224
74.637 -8.977 21.462 23 23 23
73.625 -8.636 21.374 255 255 255
73.626 -8.643 21.626 255 255 255
73.683 -8.487 21.806 238 238 238
74.043 -8.166 20.833 249 249 249
73.995 -7.503 21.011 28 28 28
74.051 -8.166 21.277 246 246 246
73.637 -7.229 21.144 108 108 108
74.048 -8.165 21.465 249 249 249
73.642 -7.227 21.334 136 136 136
73.952 -7.984 21.693 221 221 221
74.055 -8.166 21.910 252 252 252
73.848 -7.243 21.835 34 34 34
74.006 -8.143 20.827 130 130 130
74.002 -7.588 21.030 20 20 20
74.021 -8.167 21.266 142 142 142
73.887 -7.416 21.208 21 21 21
73.912 -7.958 21.425 218 218 218
73.912 -7.965 21.677 224 224 224
74.016 -7.799 21.886 102 102 102
74.234 -5.648 21.690 45 45 45
74.267 -5.643 21.475 57 57 57
74.274 -5.650 21.666 45 45 45
76.889 -13.807 22.336 142 142 142
76.854 -13.034 22.489 91 91 91
75.785 -12.274 22.320 255 255 255
75.984 -12.691 22.644 255 255 255
76.053 -11.936 22.765 221 221 221
76.098 -12.920 22.526 142 142 142
75.776 -12.338 22.545 243 243 243
75.742 -12.139 22.776 119 119 119
76.068 -11.566 22.172 221 221 221
76.034 -10.795 22.151 24 24 24
75.945 -11.364 22.367 181 181 181
76.068 -11.553 22.627 207 207 207
75.494 -10.721 22.410 134 134 134
74.942 -10.840 22.480 255 255 255
75.162 -11.246 22.784 224 224 224
75.078 -10.656 22.916 213 213 213
75.989 -11.547 22.155 176 176 176
75.992 -11.556 22.350 167 167 167
75.520 -11.353 22.489 79 79 79
74.917 -10.853 22.498 235 235 235
76.029 -11.595 23.075 164 164 164
74.979 -9.560 22.035 209 209 209
75.006 -9.803 22.230 224 224 224
74.870 -10.085 22.433 235 235 235
74.698 -10.440 22.616 255 255 255
74.219 -9.455 22.450 178 178 178
75.025 -9.831 22.888 201 201 201
74.139 -9.441 22.809 181 181 181
74.989 -9.548 22.048 170 170 170
74.625 -10.240 22.156 255 255 255
74.961 -9.782 22.461 102 102 102
74.614 -10.251 22.602 255 255 255
75.052 -9.961 22.918 193 193 193
74.976 -9.821 23.102 119 119 119
74.989 -9.004 22.207 12 12 12
74.755 -9.144 22.373 149 149 149
73.927 -8.318 22.105 230 230 230
73.670 -8.677 22.263 255 255 255
73.778 -8.858 22.482 231 231 231
73.663 -8.672 22.641 255 255 255
74.397 -9.086 23.087 164 164 164
74.078 -8.323 22.966 170 170 170
75.156 -9.384 22.263 28 28 28
74.797 -9.045 22.391 17 17 17
74.675 -9.340 22.568 136 136 136
73.663 -8.501 22.241 232 232 232
73.879 -9.087 22.537 226 226 226
73.962 -8.307 22.550 161 161 161
73.784 -8.958 22.712 147 147 147
74.154 -9.014 23.015 85 85 85
74.135 -7.575 22.139 32 32 32
73.947 -7.976 22.326 212 212 212
74.053 -8.164 22.545 238 238 238
73.604 -7.301 22.425 184 184 184
73.943 -7.971 22.707 195 195 195
74.048 -8.163 23.182 208 208 208
74.032 -8.213 22.078 142 142 142
73.969 -7.312 22.065 24 24 24
74.064 -7.706 22.315 62 62 62
73.614 -7.228 22.406 159 159 159
73.651 -7.908 22.648 224 224 224
73.659 -7.915 22.862 217 217 217
73.381 -7.835 22.960 198 198 198
76.881 -13.087 23.347 108 108 108
76.496 -12.420 23.378 147 147 147
76.407 -12.283 23.628 96 96 96
76.436 -12.330 24.357 93 93 93
76.046 -11.529 23.272 204 204 204
75.923 -11.348 23.410 193 193 193
75.782 -11.171 23.638 215 215 215
75.555 -10.717 23.731 197 197 197
75.787 -11.183 24.034 204 204 204
75.922 -11.451 23.254 96 96 96
75.673 -10.987 23.375 212 212 212
75.674 -10.994 23.572 204 204 204
75.621 -10.909 23.759 194 194 194
75.650 -10.933 24.225 161 161 161
75.776 -10.957 24.397 193 193 193
75.436 -10.543 23.296 192 192 192
75.154 -10.033 23.366 212 212 212
75.023 -9.830 23.541 197 197 197
75.147 -10.033 23.821 198 198 198
75.319 -10.331 24.112 201 201 201
75.522 -10.553 24.306 153 153 153
74.924 -9.636 24.153 198 198 198
74.984 -9.833 23.296 107 107 107
74.992 -9.849 23.554 116 116 116
75.324 -10.377 23.860 209 209 209
74.859 -9.579 23.687 221 221 221
75.099 -10.021 24.028 164 164 164
75.112 -10.032 24.226 167 167 167
74.858 -9.597 24.337 212 212 212
74.504 -8.944 23.346 211 211 211
74.624 -9.123 23.621 209 209 209
74.160 -8.338 23.452 204 204 204
74.738 -9.341 23.859 210 210 210
74.282 -8.551 23.690 227 227 227
74.397 -8.746 23.963 215 215 215
74.582 -8.974 24.267 197 197 197
74.545 -8.759 24.400 23 23 23
74.541 -9.072 23.326 119 119 119
74.238 -8.532 23.507 198 198 198
74.581 -9.143 23.802 130 130 130
74.607 -9.179 24.043 134 134 134
74.255 -8.562 24.153 187 187 187
73.715 -7.566 23.292 198 198 198
73.819 -7.766 23.522 204 204 204
73.932 -7.957 23.791 221 221 221
73.413 -7.072 23.579 221 221 221
74.043 -8.173 24.058 213 213 213
73.595 -7.359 23.850 198 198 198
73.932 -7.951 24.242 206 206 206
73.450 -7.124 24.051 207 207 207
73.798 -7.556 24.367 198 198 198
73.607 -7.453 23.267 170 170 170
73.945 -8.023 23.660 215 215 215
73.483 -7.245 23.443 227 227 227
73.942 -8.026 23.787 238 238 238
73.485 -7.251 23.635 215 215 215
73.755 -7.701 23.975 181 181 181
73.954 -8.040 24.241 218 218 218
73.492 -7.264 24.084 209 209 209
73.550 -7.275 24.295 204 204 204
75.658 -10.683 24.890 113 113 113
75.527 -10.642 25.505 187 187 187
75.610 -10.741 24.683 73 73 73
75.994 -11.567 25.035 108 108 108
76.079 -11.706 25.191 176 176 176
75.570 -10.775 25.322 105 105 105
75.626 -10.913 25.536 153 153 153
75.022 -9.824 24.452 208 208 208
74.884 -9.569 24.598 204 204 204
75.317 -10.322 24.967 102 102 102
75.338 -10.322 25.173 164 164 164
74.873 -9.558 25.250 202 202 202
75.123 -10.057 24.685 170 170 170
75.235 -10.239 24.908 193 193 193
74.801 -9.438 24.738 195 195 195
74.870 -9.618 24.995 207 207 207
75.102 -10.029 25.331 139 139 139
74.874 -9.632 25.456 193 193 193
74.836 -9.351 24.740 224 224 224
74.158 -8.317 24.507 209 209 209
74.843 -9.351 25.005 226 226 226
74.163 -8.332 24.744 207 207 207
74.533 -8.748 25.179 244 244 244
74.770 -9.391 25.388 213 213 213
74.299 -8.550 25.191 193 193 193
74.273 -8.547 25.444 210 210 210
74.117 -8.276 25.597 207 207 207
74.833 -9.288 24.564 136 136 136
74.217 -8.517 24.788 170 170 170
74.585 -8.847 25.202 198 198 198
74.237 -8.539 25.182 170 170 170
74.625 -9.217 25.596 108 108 108
73.798 -7.568 24.601 185 185 185
73.928 -7.943 24.887 209 209 209
73.824 -7.764 25.007 210 210 210
73.815 -7.762 25.264 215 215 215
73.688 -7.511 25.385 215 215 215
73.682 -7.504 25.598 204 204 204
73.964 -8.047 24.438 215 215 215
73.773 -7.695 24.641 158 158 158
73.869 -7.897 24.835 210 210 210
73.778 -7.695 25.004 147 147 147
73.973 -8.073 25.282 215 215 215
73.629 -7.309 25.223 244 244 244
73.751 -7.718 25.443 150 150 150
73.615 -7.466 25.599 212 212 212
73.385 -6.856 25.107 119 119 119
75.527 -10.635 25.703 195 195 195
75.516 -10.625 25.964 195 195 195
75.540 -10.796 25.705 110 110 110
76.038 -11.662 26.436 102 102 102
76.047 -11.676 26.638 96 96 96
75.614 -10.899 26.632 123 123 123
75.013 -9.801 26.400 187 187 187
74.799 -9.434 26.536 191 191 191
75.021 -9.775 26.820 189 189 189
75.252 -10.279 25.836 189 189 189
74.894 -9.648 25.925 190 190 190
74.885 -9.653 26.121 204 204 204
74.866 -9.601 26.787 195 195 195
74.790 -9.417 25.633 195 195 195
74.641 -9.161 25.800 193 193 193
74.639 -9.163 25.997 204 204 204
74.122 -8.302 25.795 203 203 203
74.545 -9.005 26.216 192 192 192
74.283 -8.546 26.302 198 198 198
74.541 -9.001 26.621 202 202 202
74.128 -8.315 26.719 208 208 208
74.244 -8.563 25.637 176 176 176
74.215 -8.513 25.820 137 137 137
74.750 -9.410 26.273 168 168 168
74.732 -9.379 26.552 147 147 147
74.218 -8.524 26.317 128 128 128
74.247 -8.574 26.503 140 140 140
74.245 -8.571 26.740 136 136 136
74.058 -8.145 26.030 204 204 204
73.562 -7.310 25.833 198 198 198
73.769 -7.681 26.101 204 204 204
74.056 -8.133 26.422 198 198 198
73.553 -7.300 26.219 187 187 187
73.642 -7.423 26.513 201 201 201
73.550 -7.288 26.674 193 193 193
73.989 -8.095 25.940 212 212 212
73.530 -7.316 25.757 221 221 221
73.623 -7.476 26.058 204 204 204
73.625 -7.480 26.255 195 195 195
73.627 -7.485 26.517 195 195 195
75.594 -10.879 26.909 96 96 96
74.870 -9.609 26.988 188 188 188
75.210 -10.213 27.414 158 158 158
75.153 -10.122 27.579 102 102 102
75.232 -10.239 27.823 153 153 153
74.859 -9.579 27.928 178 178 178
74.654 -9.173 26.932 187 187 187
74.540 -8.997 27.088 187 187 187
74.649 -9.175 27.264 187 187 187
74.137 -8.322 27.119 205 205 205
74.284 -8.543 27.429 206 206 206
74.285 -8.543 27.630 210 210 210
74.141 -8.332 27.786 192 192 192
74.450 -8.889 27.065 201 201 201
74.339 -8.715 27.241 187 187 187
74.454 -8.902 27.465 201 201 201
74.247 -8.580 27.649 107 107 107
74.050 -8.119 26.878 184 184 184
73.639 -7.408 26.902 204 204 204
73.781 -7.687 27.223 204 204 204
73.777 -7.687 27.420 201 201 201
73.585 -7.323 27.537 190 190 190
74.002 -8.061 27.960 115 115 115
73.420 -7.065 27.707 208 208 208
73.412 -7.081 27.942 138 138 138
73.883 -7.921 26.852 175 175 175
73.784 -7.766 26.998 108 108 108
73.897 -7.942 27.251 195 195 195
73.374 -7.065 27.026 140 140 140
73.642 -7.505 27.378 204 204 204
74.002 -8.113 27.777 207 207 207
73.387 -7.094 27.485 144 144 144
73.652 -7.516 27.845 187 187 187
73.527 -7.332 28.005 100 100 100
74.746 -9.427 28.070 79 79 79
74.356 -8.757 28.041 116 116 116
74.838 -6.728 28.852 215 215 215
74.385 -5.949 29.125 201 201 201
73.793 -6.434 28.457 85 85 85
74.709 -6.611 29.096 159 159 159
74.272 -5.787 28.905 202 202 202
73.813 -4.986 28.851 201 201 201
73.771 -4.875 29.137 136 136 136
74.237 -5.812 29.085 136 136 136
73.886 -4.769 28.926 99 99 99
73.883 -4.770 29.126 102 102 102
75.109 -7.349 29.857 108 108 108
74.309 -5.839 29.779 184 184 184
74.248 -5.826 29.288 134 134 134
74.355 -5.992 29.830 210 210 210
74.319 -5.952 30.009 151 151 151
74.282 -5.796 29.342 194 194 194
73.945 -5.176 29.403 221 221 221
73.766 -4.873 29.539 178 178 178
73.934 -5.156 29.866 192 192 192
73.890 -5.145 30.050 125 125 125
73.592 -4.993 30.126 20 20 20
73.999 -5.366 29.424 208 208 208
74.115 -4.648 29.455 137 137 137
73.818 -5.080 29.550 108 108 108
73.871 -4.776 29.795 125 125 125
73.835 -5.170 30.049 102 102 102
73.550 -4.721 30.138 28 28 28
74.948 -5.212 16.652 51 51 51
75.216 -5.086 16.699 34 34 34
75.303 -4.996 20.902 51 51 51
75.113 -5.138 21.094 45 45 45
75.307 -4.996 21.159 45 45 45
75.011 -5.171 21.245 45 45 45
