41.855 -41.508 8.803 0 0 255
-65.957 23.245 10.893 255 0 0
41.351 -41.825 9.491 0 0 255
-70.517 23.318 12.400 255 0 0
41.349 -41.831 9.774 0 0 255
41.848 -41.530 9.982 0 0 255
41.346 -41.838 10.152 0 0 255
41.337 -41.833 10.292 0 0 255
41.811 -41.505 10.448 0 0 255
41.340 -41.844 10.577 0 0 255
42.510 -41.403 10.854 0 0 255
42.503 -41.401 10.997 0 0 255
41.793 -41.506 11.110 0 0 255
42.486 -41.393 11.329 0 0 255
45.592 -40.576 11.808 0 0 255
42.474 -41.392 11.662 0 0 255
45.820 -40.564 12.364 0 0 255
41.943 -41.729 13.421 0 0 255
-66.490 -40.636 -2.818 255 0 0
-66.445 -40.730 -2.515 255 0 0
-66.577 -41.013 -2.372 255 0 0
-66.913 -39.655 -2.036 255 0 0
-66.709 -28.110 1.538 255 0 0
-70.861 -29.461 1.868 255 0 0
-70.866 -29.313 2.071 255 0 0
-73.589 -27.651 3.358 255 0 0
-74.714 -24.511 3.328 255 0 0
-74.770 -24.842 3.578 255 0 0
44.281 8.061 3.120 0 0 255
74.644 13.574 5.437 0 0 255
74.724 13.581 5.857 0 0 255
42.235 11.948 3.596 0 0 255
45.843 8.325 4.321 0 0 255
77.773 14.108 7.516 0 0 255
32.270 9.127 3.289 0 0 255
35.445 15.516 4.300 0 0 255
35.448 15.515 4.485 0 0 255
31.964 14.201 4.153 0 0 255
32.150 14.283 4.289 0 0 255
34.519 15.212 4.684 0 0 255
32.315 14.357 4.452 0 0 255
31.793 14.251 4.517 0 0 255
-77.200 -13.509 12.680 255 0 0
-77.839 -14.378 12.992 255 0 0
-76.868 -14.192 13.268 255 0 0
-77.190 -13.495 13.495 255 0 0
-76.902 -14.180 14.342 255 0 0
-77.176 -13.468 15.005 255 0 0
-77.656 -14.304 15.310 255 0 0
-76.855 -14.131 16.483 255 0 0
-76.851 -14.122 16.864 255 0 0
-77.142 -13.410 17.544 255 0 0
-76.855 -14.099 17.951 255 0 0
-77.127 -13.393 18.182 255 0 0
-76.859 -14.089 18.401 255 0 0
-77.122 -13.370 19.082 255 0 0
31.721 13.849 9.177 0 0 255
31.665 14.096 9.418 0 0 255
31.638 14.177 9.487 0 0 255
31.640 14.177 9.663 0 0 255
34.949 15.886 12.010 0 0 255
35.050 15.868 12.319 0 0 255
35.003 15.710 12.383 0 0 255
34.786 15.671 12.440 0 0 255
34.710 15.635 12.512 0 0 255
34.412 15.599 12.550 0 0 255
35.476 15.892 13.210 0 0 255
35.595 15.919 13.387 0 0 255
37.738 16.714 14.292 0 0 255
31.580 14.758 12.179 0 0 255
37.816 16.646 14.415 0 0 255
35.664 16.052 13.779 0 0 255
31.678 14.869 12.453 0 0 255
35.764 15.948 13.893 0 0 255
35.770 16.151 14.043 0 0 255
31.796 14.804 12.661 0 0 255
35.899 15.957 14.168 0 0 255
31.870 14.807 12.774 0 0 255
31.915 14.842 12.900 0 0 255
36.056 16.035 14.546 0 0 255
38.260 0.657 -1.901 0 0 255
63.457 1.457 -2.975 0 0 255
-75.767 -26.272 -2.286 255 0 0
-71.902 -29.122 -0.752 255 0 0
-70.874 -29.520 1.870 255 0 0
-73.217 -28.667 2.913 255 0 0
-73.373 -27.309 3.332 255 0 0
-73.509 -27.362 3.521 255 0 0
-71.832 -4.355 5.154 255 0 0
75.075 13.458 5.884 0 0 255
66.210 1.641 5.017 0 0 255
38.504 7.002 3.109 0 0 255
-71.107 -3.626 5.608 255 0 0
41.939 11.923 3.802 0 0 255
45.599 8.667 4.177 0 0 255
45.729 8.206 4.171 0 0 255
45.946 8.108 4.266 0 0 255
41.687 11.852 4.122 0 0 255
77.615 14.157 7.907 0 0 255
-74.006 -8.076 10.629 255 0 0
-73.821 -7.778 11.027 255 0 0
-73.822 -7.778 11.206 255 0 0
-73.934 -7.919 11.425 255 0 0
-73.980 -7.794 11.648 255 0 0
-76.036 -11.539 12.215 255 0 0
-73.943 -7.946 11.809 255 0 0
-74.122 -7.114 11.845 255 0 0
-78.106 -14.870 12.895 255 0 0
-75.818 -12.465 12.436 255 0 0
-76.145 -11.755 12.455 255 0 0
-74.024 -8.279 12.031 255 0 0
-73.995 -7.553 12.018 255 0 0
-72.871 -5.814 11.799 255 0 0
-76.905 -13.778 12.808 255 0 0
-75.821 -12.438 12.643 255 0 0
-76.030 -11.534 12.646 255 0 0
-73.990 -8.068 12.240 255 0 0
-73.951 -7.330 12.225 255 0 0
-73.039 -6.544 12.068 255 0 0
-74.984 -5.755 12.394 255 0 0
-76.893 -13.778 13.057 255 0 0
-76.940 -12.916 13.049 255 0 0
-75.963 -11.996 12.868 255 0 0
-76.118 -11.236 12.872 255 0 0
-73.633 -8.500 12.378 255 0 0
-73.976 -7.793 12.427 255 0 0
-72.655 -6.740 12.202 255 0 0
-72.815 -6.026 12.196 255 0 0
-74.349 -5.393 12.419 255 0 0
-71.800 -4.335 12.023 255 0 0
-77.746 -15.601 13.490 255 0 0
-77.084 -13.671 13.271 255 0 0
-76.622 -12.613 13.193 255 0 0
-76.152 -11.759 13.076 255 0 0
-74.005 -8.277 12.628 255 0 0
-73.993 -7.553 12.617 255 0 0
-72.707 -6.704 12.392 255 0 0
-72.910 -5.814 12.395 255 0 0
-71.525 -5.001 12.154 255 0 0
-71.859 -4.098 12.217 255 0 0
-77.741 -15.605 13.680 255 0 0
-77.085 -13.674 13.524 255 0 0
-76.604 -12.609 13.377 255 0 0
-76.163 -11.768 13.292 255 0 0
-76.182 -11.020 13.281 255 0 0
-74.744 -9.121 13.003 255 0 0
-73.998 -8.286 12.836 255 0 0
-73.995 -7.560 12.827 255 0 0
-72.707 -6.706 12.629 255 0 0
-72.914 -5.813 12.632 255 0 0
-71.672 -4.776 12.420 255 0 0
-76.709 -4.145 13.234 255 0 0
-76.751 -13.891 13.674 255 0 0
-77.106 -13.198 13.676 255 0 0
-75.738 -12.209 13.417 255 0 0
-76.012 -11.272 13.487 255 0 0
-73.991 -8.294 13.044 255 0 0
-73.871 -7.553 13.014 255 0 0
-72.709 -6.707 12.806 255 0 0
-72.912 -5.812 12.808 255 0 0
-71.670 -4.774 12.593 255 0 0
-76.686 -4.142 13.416 255 0 0
-76.818 -14.135 13.848 255 0 0
-77.120 -13.433 13.899 255 0 0
-75.827 -12.457 13.634 255 0 0
-76.007 -11.498 13.668 255 0 0
-74.962 -9.618 13.450 255 0 0
-73.691 -8.735 13.182 255 0 0
-73.992 -7.823 13.145 255 0 0
-72.679 -6.964 12.965 255 0 0
-72.888 -6.272 12.995 255 0 0
-71.941 -5.239 12.831 255 0 0
-71.815 -4.331 12.781 255 0 0
-77.214 -14.739 14.185 255 0 0
-77.019 -13.707 14.094 255 0 0
-76.522 -12.843 14.010 255 0 0
-75.954 -11.992 13.889 255 0 0
-76.186 -11.021 13.903 255 0 0
-75.274 -9.179 13.707 255 0 0
-74.001 -8.285 13.439 255 0 0
-74.124 -7.341 13.457 255 0 0
-73.036 -6.537 13.252 255 0 0
-73.000 -5.571 13.245 255 0 0
-71.954 -4.563 12.999 255 0 0
-71.528 -3.616 13.017 255 0 0
-76.860 -14.166 14.354 255 0 0
-77.132 -13.444 14.361 255 0 0
-75.736 -12.206 14.036 255 0 0
-75.612 -11.198 14.030 255 0 0
-74.832 -10.101 13.873 255 0 0
-75.367 -9.426 13.904 255 0 0
-73.642 -8.491 13.574 255 0 0
-74.003 -7.563 13.639 255 0 0
-72.700 -6.710 13.396 255 0 0
-73.116 -5.824 13.438 255 0 0
-71.684 -4.770 13.176 255 0 0
-71.672 -3.863 13.118 255 0 0
-77.057 -13.948 14.580 255 0 0
-76.227 -13.037 14.366 255 0 0
-75.961 -11.992 14.294 255 0 0
-75.065 -10.857 14.081 255 0 0
-74.873 -10.089 14.015 255 0 0
-74.641 -9.097 14.017 255 0 0
-74.005 -8.284 13.862 255 0 0
-74.103 -7.336 13.816 255 0 0
-73.038 -6.535 13.609 255 0 0
-73.160 -5.580 13.631 255 0 0
-71.952 -4.558 13.406 255 0 0
-72.020 -3.639 13.457 255 0 0
-77.282 -13.724 14.830 255 0 0
-76.262 -12.543 14.573 255 0 0
-76.008 -11.492 14.510 255 0 0
-74.622 -10.310 14.199 255 0 0
-74.025 -9.255 14.079 255 0 0
-73.641 -8.487 13.994 255 0 0
-73.773 -7.533 13.989 255 0 0
-72.696 -6.712 13.811 255 0 0
-73.110 -5.821 13.853 255 0 0
-71.687 -4.766 13.584 255 0 0
-72.178 -3.886 13.620 255 0 0
-77.476 -14.030 15.042 255 0 0
-76.987 -13.171 14.919 255 0 0
-76.326 -12.054 14.806 255 0 0
-75.130 -10.869 14.535 255 0 0
-75.062 -9.876 14.481 255 0 0
-73.857 -8.978 14.243 255 0 0
-73.959 -8.038 14.214 255 0 0
-72.674 -6.954 13.968 255 0 0
-72.809 -6.019 13.967 255 0 0
-71.525 -4.990 13.722 255 0 0
-72.266 -4.109 13.828 255 0 0
-77.471 -14.031 15.296 255 0 0
-76.974 -13.163 15.141 255 0 0
-76.311 -12.051 14.988 255 0 0
-75.669 -10.947 14.814 255 0 0
-75.051 -9.871 14.696 255 0 0
-73.878 -8.981 14.429 255 0 0
-73.968 -8.044 14.429 255 0 0
-72.674 -6.952 14.146 255 0 0
-72.740 -6.010 14.164 255 0 0
-71.522 -4.989 13.896 255 0 0
-71.833 -4.081 13.957 255 0 0
-77.482 -14.034 15.489 255 0 0
-76.972 -13.158 15.365 255 0 0
-76.483 -12.322 15.248 255 0 0
-75.830 -11.229 15.097 255 0 0
-75.216 -10.135 14.934 255 0 0
-74.590 -9.081 14.800 255 0 0
-74.130 -8.292 14.706 255 0 0
-72.816 -7.203 14.408 255 0 0
-72.905 -6.260 14.420 255 0 0
-71.668 -5.228 14.120 255 0 0
-71.796 -4.321 14.179 255 0 0
-76.846 -12.901 15.560 255 0 0
-76.327 -12.055 15.436 255 0 0
-75.678 -10.946 15.262 255 0 0
-75.058 -9.871 15.096 255 0 0
-74.581 -9.069 14.996 255 0 0
-73.960 -8.042 14.819 255 0 0
-73.388 -7.016 14.704 255 0 0
-72.750 -6.012 14.550 255 0 0
-71.522 -4.986 14.305 255 0 0
-70.960 -4.031 14.156 255 0 0
-76.724 -12.601 15.716 255 0 0
-76.008 -11.493 15.541 255 0 0
-75.352 -10.414 15.387 255 0 0
-74.746 -9.341 15.219 255 0 0
-74.283 -8.555 15.112 255 0 0
-73.678 -7.520 14.995 255 0 0
-73.101 -6.532 14.815 255 0 0
-72.476 -5.517 14.706 255 0 0
-71.939 -4.541 14.574 255 0 0
-70.690 -3.563 14.303 255 0 0
-77.096 -13.179 16.028 255 0 0
-76.704 -12.117 15.922 255 0 0
-75.941 -10.987 15.726 255 0 0
-75.057 -9.869 15.533 255 0 0
-74.434 -8.828 15.359 255 0 0
-73.831 -7.772 15.226 255 0 0
-73.235 -6.765 15.076 255 0 0
-72.649 -5.777 14.954 255 0 0
-72.083 -4.785 14.817 255 0 0
-71.654 -4.056 14.716 255 0 0
-76.847 -14.183 16.260 255 0 0
-77.093 -13.182 16.214 255 0 0
-76.001 -11.491 15.945 255 0 0
-75.856 -10.481 15.932 255 0 0
-74.976 -9.353 15.709 255 0 0
-74.388 -8.555 15.573 255 0 0
-73.687 -7.519 15.387 255 0 0
-73.089 -6.528 15.232 255 0 0
-72.515 -5.515 15.106 255 0 0
-72.083 -4.765 14.998 255 0 0
-71.526 -3.831 14.895 255 0 0
-76.833 -14.182 16.449 255 0 0
-77.140 -13.480 16.495 255 0 0
-76.152 -11.774 16.200 255 0 0
-75.708 -10.695 16.087 255 0 0
-74.938 -9.631 15.905 255 0 0
-74.659 -8.859 15.832 255 0 0
-73.936 -7.781 15.636 255 0 0
-73.251 -6.767 15.472 255 0 0
-72.656 -5.775 15.313 255 0 0
-72.083 -4.792 15.199 255 0 0
-71.660 -4.058 15.092 255 0 0
-76.835 -14.185 16.641 255 0 0
-77.136 -13.484 16.686 255 0 0
-76.161 -11.768 16.418 255 0 0
-75.716 -10.695 16.311 255 0 0
-74.946 -9.622 16.096 255 0 0
-74.678 -8.856 16.024 255 0 0
-73.982 -7.781 15.865 255 0 0
-73.556 -6.792 15.746 255 0 0
-72.711 -5.777 15.563 255 0 0
-72.084 -4.792 15.437 255 0 0
-71.653 -4.048 15.301 255 0 0
-76.734 -13.909 16.845 255 0 0
-77.100 -13.179 16.855 255 0 0
-75.997 -11.487 16.573 255 0 0
-74.625 -10.311 16.291 255 0 0
-75.133 -9.364 16.360 255 0 0
-74.271 -8.533 16.158 255 0 0
-74.165 -7.563 16.098 255 0 0
-73.697 -6.800 15.985 255 0 0
-72.805 -5.783 15.763 255 0 0
-72.210 -4.800 15.642 255 0 0
-71.668 -4.062 15.470 255 0 0
-76.864 -14.211 17.100 255 0 0
-77.143 -13.494 17.137 255 0 0
-75.733 -12.195 16.758 255 0 0
-75.978 -11.268 16.786 255 0 0
-74.626 -10.322 16.473 255 0 0
-75.163 -9.385 16.543 255 0 0
-73.676 -8.476 16.201 255 0 0
-74.152 -7.563 16.312 255 0 0
-73.686 -6.786 16.219 255 0 0
-72.819 -5.783 15.946 255 0 0
-75.308 -5.006 16.499 255 0 0
-71.786 -4.059 15.707 255 0 0
-77.153 -13.500 17.332 255 0 0
-75.859 -12.428 16.978 255 0 0
-76.003 -11.492 17.023 255 0 0
-75.489 -10.663 16.888 255 0 0
-74.943 -9.621 16.716 255 0 0
-73.699 -8.740 16.424 255 0 0
-73.982 -7.775 16.474 255 0 0
-73.201 -6.864 16.293 255 0 0
-72.816 -6.008 16.145 255 0 0
-74.948 -5.212 16.652 255 0 0
-71.801 -4.308 15.947 255 0 0
-76.733 -13.916 17.485 255 0 0
-75.723 -12.185 17.162 255 0 0
-75.977 -11.372 17.241 255 0 0
-74.628 -10.311 16.911 255 0 0
-75.215 -9.411 16.981 255 0 0
-74.019 -8.272 16.690 255 0 0
-73.886 -7.295 16.627 255 0 0
-73.049 -6.515 16.428 255 0 0
-74.229 -5.624 16.717 255 0 0
-71.823 -4.723 16.117 255 0 0
-76.658 -4.087 17.221 255 0 0
-75.843 -12.415 17.477 255 0 0
-76.003 -11.502 17.410 255 0 0
-75.277 -10.629 17.244 255 0 0
-74.929 -9.638 17.145 255 0 0
-73.698 -8.752 16.848 255 0 0
-73.978 -7.776 16.866 255 0 0
-72.671 -6.783 16.562 255 0 0
-72.811 -6.013 16.572 255 0 0
-71.507 -4.969 16.241 255 0 0
-71.809 -4.306 16.304 255 0 0
-76.744 -13.902 17.908 255 0 0
-75.735 -12.201 17.615 255 0 0
-75.996 -11.345 17.664 255 0 0
-74.628 -10.320 17.313 255 0 0
-75.057 -9.391 17.383 255 0 0
-73.690 -8.461 17.032 255 0 0
-74.070 -7.558 17.125 255 0 0
-72.756 -6.688 16.795 255 0 0
-72.859 -5.780 16.738 255 0 0
-71.514 -4.967 16.480 255 0 0
-71.804 -4.304 16.540 255 0 0
-76.747 -13.940 18.106 255 0 0
-75.846 -12.406 17.856 255 0 0
-76.094 -11.629 17.887 255 0 0
-75.147 -10.605 17.617 255 0 0
-74.938 -9.631 17.555 255 0 0
-73.698 -8.724 17.284 255 0 0
-74.000 -7.758 17.308 255 0 0
-72.655 -6.832 16.984 255 0 0
-72.813 -6.007 16.960 255 0 0
-71.514 -4.966 16.657 255 0 0
-71.802 -4.302 16.718 255 0 0
-76.518 -12.868 18.231 255 0 0
-75.924 -12.012 18.066 255 0 0
-76.029 -11.242 18.076 255 0 0
-74.895 -10.071 17.744 255 0 0
-75.033 -9.194 17.764 255 0 0
-74.018 -8.272 17.522 255 0 0
-73.852 -7.285 17.415 255 0 0
-73.055 -6.509 17.216 255 0 0
-73.162 -5.551 17.254 255 0 0
-71.773 -4.701 16.932 255 0 0
-76.767 -13.859 18.659 255 0 0
-75.861 -12.399 18.302 255 0 0
-76.050 -11.566 18.316 255 0 0
-75.341 -10.641 18.112 255 0 0
-74.938 -9.633 17.992 255 0 0
-73.692 -8.721 17.651 255 0 0
-74.063 -7.769 17.719 255 0 0
-72.652 -6.803 17.373 255 0 0
-72.814 -6.004 17.383 255 0 0
-71.513 -4.962 17.073 255 0 0
-71.801 -4.299 17.135 255 0 0
-75.902 -12.526 18.551 255 0 0
-76.167 -11.813 18.592 255 0 0
-74.946 -10.822 18.217 255 0 0
-75.049 -9.847 18.202 255 0 0
-74.279 -8.923 17.978 255 0 0
-73.977 -8.054 17.915 255 0 0
-72.666 -6.956 17.575 255 0 0
-72.915 -6.211 17.635 255 0 0
-72.106 -5.233 17.411 255 0 0
-71.917 -4.498 17.349 255 0 0
-71.528 -3.582 17.242 255 0 0
-75.930 -12.399 18.762 255 0 0
-76.066 -11.589 18.736 255 0 0
-74.781 -10.554 18.380 255 0 0
-74.416 -9.581 18.270 255 0 0
-73.695 -8.718 18.083 255 0 0
-73.988 -7.767 18.098 255 0 0
-72.652 -6.778 17.764 255 0 0
-72.819 -6.003 17.809 255 0 0
-71.512 -4.959 17.429 255 0 0
-71.803 -4.296 17.493 255 0 0
-75.969 -12.542 18.951 255 0 0
-76.181 -11.820 18.979 255 0 0
-74.964 -10.818 18.658 255 0 0
-75.059 -9.869 18.654 255 0 0
-73.773 -8.861 18.287 255 0 0
-73.977 -8.044 18.319 255 0 0
-72.665 -6.955 18.000 255 0 0
-72.906 -6.219 18.024 255 0 0
-72.325 -5.254 17.859 255 0 0
-71.915 -4.492 17.707 255 0 0
-72.143 -3.820 17.757 255 0 0
-76.244 -13.023 19.259 255 0 0
-75.984 -12.226 19.168 255 0 0
-75.708 -11.354 19.041 255 0 0
-75.063 -10.371 18.893 255 0 0
-74.008 -9.258 18.564 255 0 0
-73.737 -8.433 18.487 255 0 0
-72.969 -7.422 18.260 255 0 0
-72.792 -6.668 18.193 255 0 0
-72.770 -5.759 18.169 255 0 0
-71.684 -4.760 17.907 255 0 0
-72.251 -4.110 17.982 255 0 0
-75.888 -12.376 19.387 255 0 0
-76.064 -11.583 19.374 255 0 0
-74.826 -10.558 19.019 255 0 0
-74.904 -9.649 19.019 255 0 0
-74.400 -8.796 18.879 255 0 0
-73.099 -7.668 18.492 255 0 0
-72.640 -6.774 18.368 255 0 0
-72.661 -6.034 18.354 255 0 0
-71.868 -5.219 18.166 255 0 0
-71.912 -4.485 18.125 255 0 0
-72.098 -3.810 18.166 255 0 0
-75.933 -12.544 19.583 255 0 0
-76.184 -11.828 19.623 255 0 0
-75.177 -10.843 19.343 255 0 0
-75.053 -9.868 19.283 255 0 0
-74.500 -8.948 19.092 255 0 0
-73.987 -8.100 18.935 255 0 0
-72.829 -7.172 18.634 255 0 0
-73.057 -6.495 18.680 255 0 0
-71.941 -5.690 18.384 255 0 0
-71.683 -4.759 18.327 255 0 0
-71.656 -4.076 18.253 255 0 0
-75.864 -12.363 19.763 255 0 0
-76.078 -11.599 19.794 255 0 0
-75.496 -10.639 19.597 255 0 0
-74.894 -9.613 19.461 255 0 0
-74.419 -8.795 19.322 255 0 0
-73.965 -8.012 19.188 255 0 0
-72.841 -6.971 18.838 255 0 0
-72.889 -6.259 18.838 255 0 0
-71.773 -5.397 18.543 255 0 0
-71.850 -4.667 18.557 255 0 0
-70.911 -3.914 18.308 255 0 0
-76.306 -12.428 20.135 255 0 0
-75.964 -11.369 19.977 255 0 0
-75.462 -10.460 19.817 255 0 0
-74.744 -9.349 19.568 255 0 0
-74.276 -8.556 19.427 255 0 0
-73.805 -7.736 19.289 255 0 0
-72.959 -6.802 19.060 255 0 0
-72.846 -6.074 19.018 255 0 0
-72.008 -5.225 18.805 255 0 0
-71.901 -4.472 18.783 255 0 0
-70.798 -3.730 18.429 255 0 0
-75.962 -11.368 20.234 255 0 0
-75.665 -10.473 20.096 255 0 0
-74.890 -9.367 19.859 255 0 0
-74.309 -8.560 19.687 255 0 0
-73.804 -7.717 19.507 255 0 0
-73.137 -6.831 19.320 255 0 0
-72.865 -6.108 19.205 255 0 0
-72.354 -5.249 19.077 255 0 0
-71.904 -4.469 18.964 255 0 0
-70.798 -3.727 18.606 255 0 0
-75.836 -12.342 20.395 255 0 0
-76.071 -11.589 20.434 255 0 0
-75.686 -10.660 20.286 255 0 0
-74.946 -9.619 20.108 255 0 0
-74.664 -8.819 20.016 255 0 0
-73.962 -8.005 19.810 255 0 0
-73.388 -7.023 19.598 255 0 0
-72.894 -6.259 19.453 255 0 0
-72.475 -5.438 19.331 255 0 0
-72.023 -4.662 19.202 255 0 0
-71.601 -3.935 19.083 255 0 0
-75.916 -12.010 20.597 255 0 0
-76.029 -11.171 20.645 255 0 0
-75.153 -10.062 20.362 255 0 0
-74.953 -9.188 20.291 255 0 0
-74.358 -8.390 20.111 255 0 0
-73.899 -7.520 19.957 255 0 0
-73.270 -6.685 19.786 255 0 0
-72.767 -5.942 19.638 255 0 0
-72.200 -4.988 19.411 255 0 0
-71.782 -4.277 19.290 255 0 0
-71.387 -3.556 19.118 255 0 0
-75.836 -12.468 20.849 255 0 0
-76.149 -11.839 20.905 255 0 0
-76.004 -10.996 20.843 255 0 0
-75.024 -9.828 20.567 255 0 0
-74.698 -8.971 20.402 255 0 0
-74.047 -8.167 20.207 255 0 0
-73.669 -7.243 20.090 255 0 0
-73.074 -6.484 19.914 255 0 0
-72.702 -5.738 19.801 255 0 0
-72.085 -4.783 19.643 255 0 0
-71.657 -4.074 19.459 255 0 0
-75.776 -12.141 21.042 255 0 0
-75.952 -11.366 21.070 255 0 0
-74.642 -10.334 20.648 255 0 0
-74.961 -9.571 20.750 255 0 0
-73.718 -8.701 20.387 255 0 0
-73.957 -7.998 20.435 255 0 0
-73.659 -7.048 20.294 255 0 0
-72.886 -6.257 20.067 255 0 0
-74.340 -5.566 20.454 255 0 0
-72.034 -4.647 19.809 255 0 0
-71.628 -3.920 19.690 255 0 0
-75.797 -12.293 21.288 255 0 0
-76.049 -11.563 21.301 255 0 0
-75.883 -10.789 21.229 255 0 0
-75.007 -9.801 20.947 255 0 0
-74.255 -8.917 20.722 255 0 0
-74.044 -8.166 20.645 255 0 0
-73.665 -7.239 20.463 255 0 0
-73.067 -6.479 20.283 255 0 0
-72.799 -5.742 20.197 255 0 0
-75.303 -4.996 20.902 255 0 0
-71.798 -4.082 19.922 255 0 0
-75.830 -12.466 21.497 255 0 0
-76.045 -11.553 21.529 255 0 0
-75.739 -10.756 21.417 255 0 0
-75.004 -9.808 21.187 255 0 0
-74.071 -8.887 20.900 255 0 0
-74.043 -8.166 20.833 255 0 0
-73.655 -7.235 20.710 255 0 0
-73.061 -6.476 20.530 255 0 0
-72.831 -5.742 20.453 255 0 0
-75.307 -4.996 21.159 255 0 0
-71.807 -4.082 20.107 255 0 0
-76.051 -11.936 21.780 255 0 0
-76.017 -10.997 21.691 255 0 0
-74.991 -10.000 21.366 255 0 0
-74.894 -9.179 21.319 255 0 0
-73.894 -8.335 21.016 255 0 0
-73.995 -7.503 21.011 255 0 0
-72.853 -6.628 20.658 255 0 0
-72.863 -5.932 20.648 255 0 0
-75.011 -5.171 21.245 255 0 0
-71.804 -4.268 20.328 255 0 0
-76.046 -11.556 21.949 255 0 0
-76.022 -10.803 21.916 255 0 0
-75.003 -9.801 21.586 255 0 0
-74.211 -8.911 21.342 255 0 0
-74.051 -8.166 21.277 255 0 0
-73.637 -7.229 21.144 255 0 0
-73.062 -6.472 20.902 255 0 0
-72.840 -5.738 20.826 255 0 0
-71.697 -4.755 20.510 255 0 0
-71.824 -4.082 20.538 255 0 0
-76.068 -11.566 22.172 255 0 0
-76.034 -10.795 22.151 255 0 0
-75.004 -9.812 21.829 255 0 0
-74.087 -8.892 21.536 255 0 0
-74.048 -8.165 21.465 255 0 0
-73.642 -7.227 21.334 255 0 0
-73.056 -6.469 21.150 255 0 0
-72.856 -5.737 21.079 255 0 0
-71.701 -4.755 20.756 255 0 0
-71.823 -4.081 20.722 255 0 0
-75.785 -12.274 22.320 255 0 0
-75.945 -11.364 22.367 255 0 0
-74.700 -10.441 21.975 255 0 0
-74.979 -9.560 22.035 255 0 0
-73.679 -8.685 21.633 255 0 0
-73.952 -7.984 21.693 255 0 0
-72.672 -6.952 21.260 255 0 0
-72.884 -6.256 21.308 255 0 0
-74.234 -5.648 21.690 255 0 0
-71.934 -4.606 20.994 255 0 0
-74.650 -4.046 21.841 255 0 0
-75.984 -12.691 22.644 255 0 0
-76.068 -11.553 22.627 255 0 0
-75.494 -10.721 22.410 255 0 0
-75.006 -9.803 22.230 255 0 0
-74.989 -9.004 22.207 255 0 0
-74.055 -8.166 21.910 255 0 0
-73.848 -7.243 21.835 255 0 0
-73.056 -6.464 21.524 255 0 0
-72.796 -5.728 21.434 255 0 0
-71.700 -4.754 21.123 255 0 0
-71.816 -4.080 21.148 255 0 0
-76.053 -11.936 22.765 255 0 0
-74.942 -10.840 22.480 255 0 0
-74.870 -10.085 22.433 255 0 0
-74.755 -9.144 22.373 255 0 0
-73.927 -8.318 22.105 255 0 0
-74.135 -7.575 22.139 255 0 0
-72.886 -6.609 21.722 255 0 0
-72.868 -5.912 21.703 255 0 0
-71.552 -5.011 21.270 255 0 0
-71.809 -4.256 21.369 255 0 0
-75.162 -11.246 22.784 255 0 0
-74.698 -10.440 22.616 255 0 0
-74.219 -9.455 22.450 255 0 0
-73.670 -8.677 22.263 255 0 0
-73.947 -7.976 22.326 255 0 0
-72.667 -6.950 21.882 255 0 0
-72.891 -6.256 21.934 255 0 0
-73.142 -5.564 21.997 255 0 0
-71.952 -4.589 21.609 255 0 0
-72.076 -3.889 21.638 255 0 0
-76.046 -11.529 23.272 255 0 0
-75.078 -10.656 22.916 255 0 0
-75.025 -9.831 22.888 255 0 0
-73.778 -8.858 22.482 255 0 0
-74.053 -8.164 22.545 255 0 0
-73.604 -7.301 22.425 255 0 0
-73.054 -6.457 22.149 255 0 0
-73.209 -5.753 22.183 255 0 0
-71.603 -4.834 21.696 255 0 0
-72.217 -4.101 21.885 255 0 0
-75.923 -11.348 23.410 255 0 0
-75.436 -10.543 23.296 255 0 0
-74.139 -9.441 22.809 255 0 0
-73.663 -8.672 22.641 255 0 0
-73.943 -7.971 22.707 255 0 0
-72.667 -6.949 22.320 255 0 0
-72.888 -6.256 22.372 255 0 0
-72.894 -5.544 22.361 255 0 0
-71.954 -4.576 22.039 255 0 0
-72.179 -3.883 22.038 255 0 0
-75.782 -11.171 23.638 255 0 0
-75.154 -10.033 23.366 255 0 0
-74.397 -9.086 23.087 255 0 0
-74.078 -8.323 22.966 255 0 0
-73.001 -7.490 22.614 255 0 0
-72.915 -6.594 22.543 255 0 0
-72.723 -5.883 22.469 255 0 0
-71.594 -5.085 22.108 255 0 0
-71.816 -4.247 22.171 255 0 0
-71.971 -3.554 22.212 255 0 0
-75.555 -10.717 23.731 255 0 0
-75.023 -9.830 23.541 255 0 0
-74.504 -8.944 23.346 255 0 0
-74.048 -8.163 23.182 255 0 0
-72.845 -7.244 22.789 255 0 0
-73.045 -6.448 22.775 255 0 0
-72.075 -5.657 22.459 255 0 0
-71.601 -4.830 22.312 255 0 0
-71.647 -3.838 22.365 255 0 0
-75.787 -11.183 24.034 255 0 0
-75.147 -10.033 23.821 255 0 0
-74.624 -9.123 23.621 255 0 0
-74.160 -8.338 23.452 255 0 0
-73.715 -7.566 23.292 255 0 0
-73.207 -6.688 23.081 255 0 0
-72.017 -5.816 22.685 255 0 0
-71.589 -5.075 22.537 255 0 0
-71.636 -4.066 22.511 255 0 0
-75.319 -10.331 24.112 255 0 0
-74.738 -9.341 23.859 255 0 0
-74.282 -8.551 23.690 255 0 0
-73.819 -7.766 23.522 255 0 0
-73.281 -6.833 23.342 255 0 0
-72.830 -6.045 23.130 255 0 0
-71.695 -5.251 22.757 255 0 0
-71.062 -4.195 22.551 255 0 0
-75.522 -10.553 24.306 255 0 0
-74.924 -9.636 24.153 255 0 0
-74.397 -8.746 23.963 255 0 0
-73.932 -7.957 23.791 255 0 0
-73.413 -7.072 23.579 255 0 0
-72.896 -6.255 23.384 255 0 0
-72.506 -5.512 23.245 255 0 0
-71.902 -4.462 23.065 255 0 0
-70.745 -3.637 22.680 255 0 0
-75.022 -9.824 24.452 255 0 0
-74.582 -8.974 24.267 255 0 0
-74.043 -8.173 24.058 255 0 0
-73.595 -7.359 23.850 255 0 0
-73.020 -6.435 23.653 255 0 0
-72.607 -5.688 23.504 255 0 0
-72.122 -4.859 23.348 255 0 0
-71.531 -3.805 23.127 255 0 0
-75.658 -10.683 24.890 255 0 0
-74.884 -9.569 24.598 255 0 0
-74.545 -8.759 24.400 255 0 0
-73.932 -7.951 24.242 255 0 0
-73.450 -7.124 24.051 255 0 0
-72.894 -6.254 23.827 255 0 0
-72.510 -5.512 23.688 255 0 0
-71.946 -4.530 23.456 255 0 0
-71.432 -3.663 23.271 255 0 0
-75.317 -10.322 24.967 255 0 0
-74.836 -9.351 24.740 255 0 0
-74.158 -8.317 24.507 255 0 0
-73.798 -7.556 24.367 255 0 0
-73.194 -6.656 24.152 255 0 0
-72.706 -5.848 23.971 255 0 0
-72.271 -5.099 23.815 255 0 0
-71.658 -4.064 23.575 255 0 0
37.481 16.556 13.536 0 0 255
-75.338 -10.322 25.173 255 0 0
-74.843 -9.351 25.005 255 0 0
-74.163 -8.332 24.744 255 0 0
-73.798 -7.568 24.601 255 0 0
-73.011 -6.426 24.286 255 0 0
-72.611 -5.680 24.138 255 0 0
-72.126 -4.854 23.977 255 0 0
-71.473 -3.718 23.722 255 0 0
37.537 16.587 13.699 0 0 255
-75.527 -10.642 25.505 255 0 0
-74.873 -9.558 25.250 255 0 0
-74.533 -8.748 25.179 255 0 0
-73.928 -7.943 24.887 255 0 0
-73.269 -6.842 24.616 255 0 0
-72.816 -6.027 24.389 255 0 0
-72.446 -5.290 24.252 255 0 0
-71.806 -4.310 24.028 255 0 0
-75.527 -10.635 25.703 255 0 0
-74.770 -9.391 25.388 255 0 0
-74.299 -8.550 25.191 255 0 0
-73.824 -7.764 25.007 255 0 0
-73.227 -6.710 24.804 255 0 0
-72.701 -5.833 24.603 255 0 0
-72.144 -4.853 24.361 255 0 0
-71.492 -3.706 24.163 255 0 0
-75.516 -10.625 25.964 255 0 0
-74.790 -9.417 25.633 255 0 0
-74.273 -8.547 25.444 255 0 0
-73.815 -7.762 25.264 255 0 0
-73.385 -6.856 25.107 255 0 0
-72.841 -6.081 24.839 255 0 0
-72.526 -5.290 24.722 255 0 0
-71.773 -4.256 24.460 255 0 0
-74.641 -9.161 25.800 255 0 0
-74.117 -8.276 25.597 255 0 0
-73.688 -7.511 25.385 255 0 0
-73.216 -6.696 25.183 255 0 0
-72.737 -5.889 25.000 255 0 0
-72.373 -5.081 24.921 255 0 0
-71.668 -4.061 24.645 255 0 0
-74.639 -9.163 25.997 255 0 0
-74.122 -8.302 25.795 255 0 0
-73.682 -7.504 25.598 255 0 0
-73.210 -6.686 25.437 255 0 0
-72.730 -5.881 25.252 255 0 0
-72.360 -5.075 25.107 255 0 0
-71.661 -4.059 24.831 255 0 0
37.773 16.714 14.398 0 0 255
-75.013 -9.801 26.400 255 0 0
-74.545 -9.005 26.216 255 0 0
-74.058 -8.145 26.030 255 0 0
-73.562 -7.310 25.833 255 0 0
-73.024 -6.450 25.568 255 0 0
-72.593 -5.662 25.406 255 0 0
-72.113 -4.843 25.238 255 0 0
-74.799 -9.434 26.536 255 0 0
-74.283 -8.546 26.302 255 0 0
-73.769 -7.681 26.101 255 0 0
-73.291 -6.854 25.916 255 0 0
-72.843 -6.089 25.726 255 0 0
-72.373 -5.268 25.495 255 0 0
-71.795 -4.283 25.282 255 0 0
-75.021 -9.775 26.820 255 0 0
-74.541 -9.001 26.621 255 0 0
-74.056 -8.133 26.422 255 0 0
-73.553 -7.300 26.219 255 0 0
-73.059 -6.485 26.028 255 0 0
-72.590 -5.656 25.789 255 0 0
-72.112 -4.840 25.620 255 0 0
-71.442 -3.665 25.396 255 0 0
-74.654 -9.173 26.932 255 0 0
-74.128 -8.315 26.719 255 0 0
-73.642 -7.423 26.513 255 0 0
-73.196 -6.652 26.332 255 0 0
-72.720 -5.854 26.079 255 0 0
-72.235 -5.045 25.891 255 0 0
-71.655 -4.056 25.716 255 0 0
-74.540 -8.997 27.088 255 0 0
-74.050 -8.119 26.878 255 0 0
-73.550 -7.288 26.674 255 0 0
-73.036 -6.435 26.478 255 0 0
-72.589 -5.650 26.240 255 0 0
-72.107 -4.837 26.066 255 0 0
-71.449 -3.671 25.755 255 0 0
-74.649 -9.175 27.264 255 0 0
-74.137 -8.322 27.119 255 0 0
-73.639 -7.408 26.902 255 0 0
-73.190 -6.637 26.718 255 0 0
-72.710 -5.839 26.526 255 0 0
-72.277 -5.094 26.353 255 0 0
-71.654 -4.055 26.098 255 0 0
-74.284 -8.543 27.429 255 0 0
-73.781 -7.687 27.223 255 0 0
-73.300 -6.864 27.030 255 0 0
-72.704 -6.086 26.726 255 0 0
-72.414 -5.354 26.604 255 0 0
-71.883 -4.420 26.386 255 0 0
-74.285 -8.543 27.630 255 0 0
-73.777 -7.687 27.420 255 0 0
-73.180 -6.619 27.168 255 0 0
-72.692 -5.807 26.928 255 0 0
-72.256 -5.061 26.752 255 0 0
-71.774 -4.254 26.547 255 0 0
-74.141 -8.332 27.786 255 0 0
-73.585 -7.323 27.537 255 0 0
-73.068 -6.457 27.331 255 0 0
-72.621 -5.699 27.182 255 0 0
-72.145 -4.893 26.901 255 0 0
-71.693 -4.115 26.736 255 0 0
-74.002 -8.061 27.960 255 0 0
-73.420 -7.065 27.707 255 0 0
-72.938 -6.249 27.522 255 0 0
-72.500 -5.499 27.339 255 0 0
-72.075 -4.767 27.165 255 0 0
-71.443 -3.662 26.848 255 0 0
-73.412 -7.081 27.942 255 0 0
-72.933 -6.248 27.717 255 0 0
-72.504 -5.498 27.537 255 0 0
-72.075 -4.766 27.359 255 0 0
-71.438 -3.655 27.037 255 0 0
-73.341 -6.998 28.024 255 0 0
-72.935 -6.247 27.915 255 0 0
-72.465 -5.431 27.723 255 0 0
-71.869 -4.379 27.403 255 0 0
-71.389 -3.558 27.281 255 0 0
-74.838 -6.728 28.852 255 0 0
-72.470 -5.452 27.963 255 0 0
-71.837 -4.331 27.693 255 0 0
-74.272 -5.787 28.905 255 0 0
-72.070 -4.764 28.008 255 0 0
-71.384 -3.547 27.664 255 0 0
-74.385 -5.949 29.125 255 0 0
-73.813 -4.986 28.851 255 0 0
-71.419 -3.618 27.924 255 0 0
-74.282 -5.796 29.342 255 0 0
-73.771 -4.875 29.137 255 0 0
-73.945 -5.176 29.403 255 0 0
-74.309 -5.839 29.779 255 0 0
-73.766 -4.873 29.539 255 0 0
-73.934 -5.156 29.866 255 0 0
-73.890 -5.145 30.050 255 0 0
-73.592 -4.993 30.126 255 0 0
59.697 1.398 -2.999 0 0 255
63.557 1.124 -2.926 0 0 255
-66.357 8.706 1.172 255 0 0
-75.701 -10.830 8.923 255 0 0
-66.209 20.863 9.639 255 0 0
-73.922 -7.958 10.814 255 0 0
-74.069 -8.227 11.054 255 0 0
-73.906 -7.972 11.460 255 0 0
-74.896 22.380 12.160 255 0 0
-76.152 -11.947 12.044 255 0 0
-73.856 -7.492 11.607 255 0 0
-70.317 19.485 11.686 255 0 0
-68.785 21.352 11.383 255 0 0
-73.930 -7.504 11.856 255 0 0
-68.369 21.572 11.676 255 0 0
-75.935 -11.429 12.413 255 0 0
-73.762 -8.464 12.061 255 0 0
-73.935 -7.509 12.035 255 0 0
-77.891 -14.561 13.059 255 0 0
-77.088 -13.149 12.881 255 0 0
-76.098 -11.734 12.671 255 0 0
-73.737 -8.465 12.234 255 0 0
-73.949 -7.514 12.216 255 0 0
-73.875 -6.777 12.197 255 0 0
-72.912 -5.760 12.037 255 0 0
-68.654 21.609 11.953 255 0 0
-78.077 -15.150 13.319 255 0 0
-77.073 -13.151 13.066 255 0 0
-76.054 -11.955 12.887 255 0 0
-73.640 -8.681 12.371 255 0 0
-76.961 -8.088 12.939 255 0 0
-72.624 -6.915 12.211 255 0 0
-72.842 -5.986 12.254 255 0 0
-71.947 -4.756 12.021 255 0 0
-78.102 -15.396 13.494 255 0 0
-77.115 -13.666 13.286 255 0 0
-75.825 -12.449 13.066 255 0 0
-75.941 -11.443 13.029 255 0 0
-74.045 -8.257 12.658 255 0 0
-73.661 -7.264 12.589 255 0 0
-72.891 -6.242 12.422 255 0 0
-71.601 -5.197 12.156 255 0 0
-71.816 -4.281 12.252 255 0 0
-76.515 -3.831 13.107 255 0 0
-77.827 -15.900 13.675 255 0 0
-78.441 -14.682 13.788 255 0 0
-77.152 -13.174 13.519 255 0 0
-76.033 -11.964 13.314 255 0 0
-76.009 -10.997 13.252 255 0 0
-73.646 -8.693 12.787 255 0 0
-73.979 -7.785 12.853 255 0 0
-72.780 -6.689 12.602 255 0 0
-72.833 -5.765 12.610 255 0 0
-71.775 -4.760 12.446 255 0 0
-73.426 -4.158 12.713 255 0 0
-78.098 -15.176 13.954 255 0 0
-77.090 -13.448 13.736 255 0 0
-75.709 -12.170 13.435 255 0 0
-76.138 -11.242 13.502 255 0 0
-75.230 -9.127 13.296 255 0 0
-73.927 -8.015 13.004 255 0 0
-72.620 -6.932 12.791 255 0 0
-72.826 -5.998 12.838 255 0 0
-71.483 -4.967 12.544 255 0 0
-71.809 -4.287 12.597 255 0 0
-77.855 -15.921 14.122 255 0 0
-76.844 -14.179 13.897 255 0 0
-77.365 -12.956 13.940 255 0 0
-76.115 -11.773 13.713 255 0 0
-74.983 -9.590 13.453 255 0 0
-73.704 -8.486 13.178 255 0 0
-73.948 -7.536 13.230 255 0 0
-73.045 -6.494 13.066 255 0 0
-72.612 -5.530 13.010 255 0 0
-71.926 -4.535 12.806 255 0 0
-78.025 -16.203 14.394 255 0 0
-76.997 -14.431 14.161 255 0 0
-76.903 -13.146 14.103 255 0 0
-76.005 -11.978 13.925 255 0 0
-76.200 -11.046 13.898 255 0 0
-74.905 -10.098 13.642 255 0 0
-75.200 -9.132 13.657 255 0 0
-73.931 -8.027 13.422 255 0 0
-72.625 -6.943 13.201 255 0 0
-72.827 -6.006 13.191 255 0 0
-71.488 -4.975 12.949 255 0 0
-71.746 -4.079 12.996 255 0 0
-76.851 -14.196 14.334 255 0 0
-76.010 -12.742 14.128 255 0 0
-76.133 -11.792 14.146 255 0 0
-74.733 -10.557 13.840 255 0 0
-75.016 -9.855 13.879 255 0 0
-73.660 -8.718 13.561 255 0 0
-74.119 -7.820 13.654 255 0 0
-72.751 -6.704 13.419 255 0 0
-73.169 -5.812 13.436 255 0 0
-71.492 -4.979 13.123 255 0 0
-71.759 -4.077 13.136 255 0 0
-77.150 -13.710 14.547 255 0 0
-75.863 -12.498 14.296 255 0 0
-75.960 -11.477 14.330 255 0 0
-74.601 -10.302 14.000 255 0 0
-74.888 -9.595 14.041 255 0 0
-73.687 -8.492 13.794 255 0 0
-74.092 -7.815 13.811 255 0 0
-72.745 -6.708 13.595 255 0 0
-73.172 -5.820 13.672 255 0 0
-71.490 -4.983 13.354 255 0 0
-72.265 -4.112 13.520 255 0 0
-77.268 -13.739 14.822 255 0 0
-75.864 -12.505 14.481 255 0 0
-75.957 -11.481 14.516 255 0 0
-74.605 -10.310 14.243 255 0 0
-74.131 -9.505 14.139 255 0 0
-73.671 -8.504 14.006 255 0 0
-73.868 -7.785 14.034 255 0 0
-72.740 -6.711 13.771 255 0 0
-73.145 -5.823 13.844 255 0 0
-71.490 -4.987 13.527 255 0 0
-72.266 -4.125 13.670 255 0 0
-77.628 -14.363 15.110 255 0 0
-76.773 -12.889 14.895 255 0 0
-76.140 -11.816 14.762 255 0 0
-74.754 -10.575 14.454 255 0 0
-75.037 -9.872 14.494 255 0 0
-73.830 -8.984 14.188 255 0 0
-73.951 -8.054 14.261 255 0 0
-73.299 -7.258 14.051 255 0 0
-72.889 -6.292 14.039 255 0 0
-72.966 -5.582 14.014 255 0 0
-71.931 -4.549 13.798 255 0 0
-72.018 -3.638 13.848 255 0 0
-77.777 -14.611 15.386 255 0 0
-77.123 -13.509 15.241 255 0 0
-76.460 -12.328 15.067 255 0 0
-75.822 -11.238 14.861 255 0 0
-75.199 -10.194 14.731 255 0 0
-73.988 -9.263 14.464 255 0 0
-74.015 -8.296 14.453 255 0 0
-72.946 -7.462 14.234 255 0 0
-73.044 -6.518 14.249 255 0 0
-72.461 -5.631 14.075 255 0 0
-71.704 -4.790 13.939 255 0 0
-71.880 -3.841 13.987 255 0 0
-78.148 -15.251 15.679 255 0 0
-77.126 -13.517 15.430 255 0 0
-76.463 -12.334 15.256 255 0 0
-75.827 -11.247 15.109 255 0 0
-75.201 -10.202 14.913 255 0 0
-74.724 -9.368 14.824 255 0 0
-74.084 -8.308 14.647 255 0 0
-72.942 -7.466 14.411 255 0 0
-73.041 -6.522 14.427 255 0 0
-71.806 -5.528 14.178 255 0 0
-71.691 -4.802 14.143 255 0 0
-71.226 -3.813 14.036 255 0 0
-77.135 -13.526 15.620 255 0 0
-76.463 -12.339 15.444 255 0 0
-75.834 -11.254 15.296 255 0 0
-75.344 -10.437 15.181 255 0 0
-74.733 -9.385 15.042 255 0 0
-74.115 -8.317 14.895 255 0 0
-73.661 -7.545 14.793 255 0 0
-73.062 -6.527 14.610 255 0 0
-71.805 -5.536 14.409 255 0 0
-71.685 -4.800 14.341 255 0 0
-70.810 -3.792 14.155 255 0 0
-77.136 -13.536 15.872 255 0 0
-76.701 -12.384 15.745 255 0 0
-75.842 -11.261 15.483 255 0 0
-75.202 -10.179 15.329 255 0 0
-74.572 -9.096 15.182 255 0 0
-73.971 -8.080 15.045 255 0 0
-73.513 -7.299 14.949 255 0 0
-72.889 -6.294 14.800 255 0 0
-72.140 -5.512 14.635 255 0 0
-71.763 -4.324 14.564 255 0 0
-78.160 -15.279 16.321 255 0 0
-76.824 -12.409 15.960 255 0 0
-75.964 -11.287 15.756 255 0 0
-75.245 -10.201 15.556 255 0 0
-74.571 -9.101 15.365 255 0 0
-74.128 -8.328 15.261 255 0 0
-73.668 -7.555 15.155 255 0 0
-73.080 -6.543 15.067 255 0 0
-72.520 -5.605 14.902 255 0 0
-72.076 -4.838 14.828 255 0 0
-71.277 -4.104 14.632 255 0 0
-78.166 -15.288 16.514 255 0 0
-77.072 -13.227 16.223 255 0 0
-75.982 -11.521 15.953 255 0 0
-75.835 -10.525 15.898 255 0 0
-74.848 -9.419 15.674 255 0 0
-74.270 -8.571 15.533 255 0 0
-73.828 -7.808 15.415 255 0 0
-73.230 -6.792 15.294 255 0 0
-72.641 -5.796 15.133 255 0 0
-72.209 -5.067 15.013 255 0 0
-71.785 -4.333 14.919 255 0 0
-71.376 -3.602 14.782 255 0 0
-78.167 -15.299 16.771 255 0 0
-77.070 -13.234 16.477 255 0 0
-75.986 -11.529 16.204 255 0 0
-75.772 -10.523 16.071 255 0 0
-75.169 -9.456 15.954 255 0 0
-74.461 -8.597 15.756 255 0 0
-73.831 -7.811 15.537 255 0 0
-73.230 -6.797 15.473 255 0 0
-72.647 -5.809 15.348 255 0 0
-72.218 -5.073 15.250 255 0 0
-71.791 -4.339 15.155 255 0 0
-78.181 -15.313 17.031 255 0 0
-75.723 -12.249 16.355 255 0 0
-75.965 -11.309 16.378 255 0 0
-75.676 -10.278 16.264 255 0 0
-75.037 -9.176 16.138 255 0 0
-74.114 -8.344 15.926 255 0 0
-74.046 -7.377 15.881 255 0 0
-72.884 -6.287 15.630 255 0 0
-72.530 -5.558 15.546 255 0 0
-71.938 -4.595 15.354 255 0 0
-71.514 -3.851 15.259 255 0 0
-77.160 -13.582 16.886 255 0 0
-76.158 -11.895 16.623 255 0 0
-75.940 -10.794 16.552 255 0 0
-74.922 -9.672 16.304 255 0 0
-74.511 -8.712 16.197 255 0 0
-73.949 -7.886 16.057 255 0 0
-73.693 -6.851 15.994 255 0 0
-72.807 -6.071 15.792 255 0 0
-72.489 -5.343 15.715 255 0 0
-71.943 -4.553 15.535 255 0 0
-71.388 -3.642 15.391 255 0 0
-76.938 -13.762 17.096 255 0 0
-75.865 -12.052 16.813 255 0 0
-76.070 -11.143 16.833 255 0 0
-75.067 -9.931 16.592 255 0 0
-74.154 -8.864 16.304 255 0 0
-73.996 -8.124 16.256 255 0 0
-73.747 -7.131 16.217 255 0 0
-72.875 -6.294 15.988 255 0 0
-74.473 -5.494 16.328 255 0 0
-71.947 -4.554 15.773 255 0 0
-72.715 -3.708 15.939 255 0 0
-76.983 -13.003 17.273 255 0 0
-76.000 -11.554 17.023 255 0 0
-74.655 -10.398 16.691 255 0 0
-75.165 -9.467 16.786 255 0 0
-73.623 -8.517 16.429 255 0 0
-74.156 -7.640 16.531 255 0 0
-73.026 -6.586 16.259 255 0 0
-72.906 -5.860 16.214 255 0 0
-75.216 -5.086 16.699 255 0 0
-71.799 -4.109 15.967 255 0 0
-77.511 -13.102 17.648 255 0 0
-76.000 -11.559 17.212 255 0 0
-74.652 -10.406 16.936 255 0 0
-75.108 -9.495 16.956 255 0 0
-73.621 -8.521 16.611 255 0 0
-74.148 -7.644 16.713 255 0 0
-72.972 -6.588 16.426 255 0 0
-72.888 -5.839 16.380 255 0 0
-75.187 -5.105 16.905 255 0 0
-71.820 -4.113 16.148 255 0 0
-77.169 -13.623 17.775 255 0 0
-75.740 -12.283 17.426 255 0 0
-75.954 -11.345 17.438 255 0 0
-74.744 -10.185 17.108 255 0 0
-74.890 -9.187 17.155 255 0 0
-73.916 -8.351 16.917 255 0 0
-74.131 -7.648 16.892 255 0 0
-72.952 -6.592 16.600 255 0 0
-72.907 -5.858 16.599 255 0 0
-71.593 -4.854 16.303 255 0 0
-71.828 -4.117 16.328 255 0 0
-77.052 -13.272 17.944 255 0 0
-75.824 -12.075 17.618 255 0 0
-76.083 -11.184 17.708 255 0 0
-75.073 -9.955 17.400 255 0 0
-73.733 -8.843 17.059 255 0 0
-74.021 -8.157 17.111 255 0 0
-72.681 -7.037 16.790 255 0 0
-72.862 -6.310 16.826 255 0 0
-74.462 -5.516 17.120 255 0 0
-71.865 -4.455 16.552 255 0 0
-76.523 -3.936 17.625 255 0 0
-77.091 -14.590 18.307 255 0 0
-77.046 -13.277 18.135 255 0 0
-75.811 -12.082 17.865 255 0 0
-76.108 -11.197 17.902 255 0 0
-75.066 -9.960 17.585 255 0 0
-74.988 -9.210 17.550 255 0 0
-73.899 -8.360 17.280 255 0 0
-73.810 -7.369 17.218 255 0 0
-72.943 -6.489 17.003 255 0 0
-73.546 -5.735 17.145 255 0 0
-71.926 -4.634 16.767 255 0 0
-76.480 -4.136 17.734 255 0 0
-76.867 -13.797 18.355 255 0 0
-76.747 -12.802 18.286 255 0 0
-76.025 -11.589 18.102 255 0 0
-74.670 -10.439 17.741 255 0 0
-75.038 -9.555 17.797 255 0 0
-73.623 -8.671 17.446 255 0 0
-73.919 -7.935 17.504 255 0 0
-72.670 -7.012 17.154 255 0 0
-72.848 -6.316 17.185 255 0 0
-74.444 -5.527 17.546 255 0 0
-71.893 -4.489 16.937 255 0 0
-77.096 -14.606 18.694 255 0 0
-76.258 -13.159 18.523 255 0 0
-75.750 -12.311 18.248 255 0 0
-75.904 -11.369 18.243 255 0 0
-74.704 -10.209 17.963 255 0 0
-75.135 -9.464 18.030 255 0 0
-73.605 -8.542 17.646 255 0 0
-74.096 -7.669 17.741 255 0 0
-72.613 -6.796 17.374 255 0 0
-72.821 -6.117 17.413 255 0 0
-71.546 -5.047 17.078 255 0 0
-71.823 -4.307 17.131 255 0 0
-77.225 -13.683 18.873 255 0 0
-75.768 -12.320 18.443 255 0 0
-75.148 -11.265 18.311 255 0 0
-74.718 -10.197 18.188 255 0 0
-74.975 -9.448 18.179 255 0 0
-73.598 -8.545 17.829 255 0 0
-74.112 -7.676 17.929 255 0 0
-72.599 -6.800 17.551 255 0 0
-72.836 -6.124 17.597 255 0 0
-71.564 -5.118 17.265 255 0 0
-71.909 -4.519 17.322 255 0 0
-71.530 -3.686 17.268 255 0 0
-77.382 -13.918 19.188 255 0 0
-75.987 -12.701 18.670 255 0 0
-76.040 -11.611 18.740 255 0 0
-74.654 -10.372 18.378 255 0 0
-74.445 -9.508 18.268 255 0 0
-73.631 -8.700 18.052 255 0 0
-73.929 -7.959 18.116 255 0 0
-72.688 -7.027 17.762 255 0 0
-72.840 -6.328 17.788 255 0 0
-73.073 -5.446 17.887 255 0 0
-71.902 -4.655 17.533 255 0 0
-72.198 -3.877 17.678 255 0 0
-77.747 -14.575 19.481 255 0 0
-76.173 -12.942 19.053 255 0 0
-76.246 -12.016 19.026 255 0 0
-74.837 -10.707 18.609 255 0 0
-74.958 -9.761 18.598 255 0 0
-73.772 -8.894 18.286 255 0 0
-74.048 -8.207 18.339 255 0 0
-73.590 -7.278 18.237 255 0 0
-73.004 -6.526 18.042 255 0 0
-73.213 -5.705 18.101 255 0 0
-71.585 -4.839 17.701 255 0 0
-72.004 -4.157 17.798 255 0 0
-77.246 -13.721 19.584 255 0 0
-75.862 -12.358 19.165 255 0 0
-75.317 -11.315 18.979 255 0 0
-75.026 -10.440 18.843 255 0 0
-74.095 -9.483 18.610 255 0 0
-73.652 -8.722 18.482 255 0 0
-73.137 -7.803 18.360 255 0 0
-72.689 -7.037 18.187 255 0 0
-72.834 -6.337 18.211 255 0 0
-72.822 -5.438 18.188 255 0 0
-71.896 -4.667 17.949 255 0 0
-72.199 -3.927 17.998 255 0 0
-77.265 -13.734 19.782 255 0 0
-76.138 -12.194 19.464 255 0 0
-75.057 -11.110 19.079 255 0 0
-75.249 -10.246 19.146 255 0 0
-74.766 -9.443 19.004 255 0 0
-73.797 -8.523 18.715 255 0 0
-73.013 -7.589 18.513 255 0 0
-72.589 -6.825 18.392 255 0 0
-72.847 -6.150 18.446 255 0 0
-71.584 -5.151 18.096 255 0 0
-71.903 -4.515 18.131 255 0 0
-72.016 -3.732 18.161 255 0 0
-75.840 -12.369 19.605 255 0 0
-75.917 -11.424 19.574 255 0 0
-75.311 -10.413 19.372 255 0 0
-74.842 -9.599 19.231 255 0 0
-74.356 -8.742 19.079 255 0 0
-73.505 -7.851 18.822 255 0 0
-72.698 -7.048 18.615 255 0 0
-72.831 -6.347 18.636 255 0 0
-71.727 -5.369 18.332 255 0 0
-71.876 -4.679 18.361 255 0 0
-71.599 -3.918 18.232 255 0 0
-77.412 -13.783 20.272 255 0 0
-76.088 -12.202 19.833 255 0 0
-75.808 -11.243 19.711 255 0 0
-75.250 -10.256 19.590 255 0 0
-74.784 -9.456 19.448 255 0 0
-74.195 -8.451 19.200 255 0 0
-73.682 -7.670 19.052 255 0 0
-72.729 -6.849 18.792 255 0 0
-72.587 -6.079 18.776 255 0 0
-71.594 -5.168 18.514 255 0 0
-71.910 -4.526 18.551 255 0 0
-70.902 -3.645 18.302 255 0 0
-77.008 -13.814 20.406 255 0 0
-76.369 -12.258 20.163 255 0 0
-75.782 -10.878 19.925 255 0 0
-75.128 -10.036 19.731 255 0 0
-74.656 -9.235 19.587 255 0 0
-74.076 -8.252 19.392 255 0 0
-73.073 -7.422 19.114 255 0 0
-73.133 -6.630 19.118 255 0 0
-72.463 -5.800 18.920 255 0 0
-71.663 -5.042 18.701 255 0 0
-71.588 -4.348 18.659 255 0 0
-77.023 -13.733 20.557 255 0 0
-76.582 -12.131 20.383 255 0 0
-75.598 -10.654 20.101 255 0 0
-74.987 -9.815 19.854 255 0 0
-74.507 -8.980 19.741 255 0 0
-73.962 -8.074 19.583 255 0 0
-73.216 -7.286 19.360 255 0 0
-72.951 -6.457 19.283 255 0 0
-72.554 -5.640 19.163 255 0 0
-72.122 -4.903 19.039 255 0 0
-71.339 -4.146 18.825 255 0 0
-76.745 -13.874 20.707 255 0 0
-76.206 -12.248 20.504 255 0 0
-75.926 -10.913 20.411 255 0 0
-75.145 -10.051 20.115 255 0 0
-74.887 -9.276 20.026 255 0 0
-74.078 -8.270 19.825 255 0 0
-73.636 -7.497 19.691 255 0 0
-73.149 -6.661 19.520 255 0 0
-72.662 -5.833 19.361 255 0 0
-72.231 -5.102 19.236 255 0 0
-71.787 -4.353 19.128 255 0 0
-77.073 -13.169 21.025 255 0 0
-76.032 -11.613 20.688 255 0 0
-75.563 -10.319 20.501 255 0 0
-74.991 -9.503 20.325 255 0 0
-74.509 -8.516 20.157 255 0 0
-73.964 -7.728 19.993 255 0 0
-73.387 -6.939 19.822 255 0 0
-72.748 -6.002 19.610 255 0 0
-72.324 -5.253 19.485 255 0 0
-71.892 -4.488 19.363 255 0 0
-71.389 -3.653 19.210 255 0 0
-75.798 -12.406 20.876 255 0 0
-75.954 -11.320 20.826 255 0 0
-74.715 -10.208 20.461 255 0 0
-74.981 -9.506 20.513 255 0 0
-74.507 -8.522 20.345 255 0 0
-74.047 -7.743 20.202 255 0 0
-73.600 -6.966 20.065 255 0 0
-72.782 -6.012 19.801 255 0 0
-72.334 -5.261 19.669 255 0 0
-71.895 -4.503 19.543 255 0 0
-71.386 -3.659 19.422 255 0 0
-75.796 -12.413 21.069 255 0 0
-75.960 -11.493 21.052 255 0 0
-74.626 -10.395 20.688 255 0 0
-74.918 -9.685 20.747 255 0 0
-74.116 -8.668 20.508 255 0 0
-73.910 -7.932 20.420 255 0 0
-73.584 -7.169 20.265 255 0 0
-72.888 -6.205 20.042 255 0 0
-73.445 -5.544 20.184 255 0 0
-72.023 -4.658 19.771 255 0 0
-71.514 -3.841 19.640 255 0 0
-76.715 -13.909 21.609 255 0 0
-75.753 -12.161 21.266 255 0 0
-75.942 -10.945 21.250 255 0 0
-74.952 -10.056 20.950 255 0 0
-74.935 -9.222 20.938 255 0 0
-74.010 -8.300 20.676 255 0 0
-73.973 -7.569 20.649 255 0 0
-73.194 -6.654 20.371 255 0 0
-72.886 -5.875 20.249 255 0 0
-73.024 -5.178 20.277 255 0 0
-71.828 -4.198 19.920 255 0 0
-76.717 -13.921 21.871 255 0 0
-76.100 -11.716 21.579 255 0 0
-74.709 -10.583 21.123 255 0 0
-75.029 -9.878 21.190 255 0 0
-73.715 -8.843 20.764 255 0 0
-74.006 -8.143 20.827 255 0 0
-73.893 -7.402 20.775 255 0 0
-72.892 -6.397 20.493 255 0 0
-73.242 -5.724 20.579 255 0 0
-75.113 -5.138 21.094 255 0 0
-71.785 -4.022 20.133 255 0 0
-75.762 -12.157 21.679 255 0 0
-75.961 -10.964 21.708 255 0 0
-74.934 -10.069 21.390 255 0 0
-74.858 -9.139 21.310 255 0 0
-73.979 -8.313 21.041 255 0 0
-74.002 -7.588 21.030 255 0 0
-72.891 -6.633 20.681 255 0 0
-72.913 -5.893 20.686 255 0 0
-72.369 -5.147 20.521 255 0 0
-71.843 -4.210 20.349 255 0 0
-76.889 -13.807 22.336 255 0 0
-76.108 -11.731 21.970 255 0 0
-75.918 -10.775 21.915 255 0 0
-75.006 -9.843 21.614 255 0 0
-74.637 -8.977 21.462 255 0 0
-74.021 -8.167 21.266 255 0 0
-73.887 -7.416 21.208 255 0 0
-72.917 -6.409 20.871 255 0 0
-73.208 -5.731 20.942 255 0 0
-71.526 -4.901 20.450 255 0 0
-71.768 -4.035 20.552 255 0 0
-76.854 -13.034 22.489 255 0 0
-75.989 -11.547 22.155 255 0 0
-74.665 -10.453 21.703 255 0 0
-74.991 -9.541 21.792 255 0 0
-73.625 -8.636 21.374 255 0 0
-73.912 -7.958 21.425 255 0 0
-72.779 -7.118 21.094 255 0 0
-72.901 -6.241 21.092 255 0 0
-74.267 -5.643 21.475 255 0 0
-71.877 -4.638 20.776 255 0 0
-71.591 -3.717 20.676 255 0 0
-76.098 -12.920 22.526 255 0 0
-75.992 -11.556 22.350 255 0 0
-74.677 -10.469 21.959 255 0 0
-74.989 -9.548 22.048 255 0 0
-73.626 -8.643 21.626 255 0 0
-73.912 -7.965 21.677 255 0 0
-72.666 -6.988 21.231 255 0 0
-72.895 -6.247 21.276 255 0 0
-74.274 -5.650 21.666 255 0 0
-71.936 -4.587 20.978 255 0 0
-75.084 -4.058 21.865 255 0 0
-75.776 -12.338 22.545 255 0 0
-75.520 -11.353 22.489 255 0 0
-74.625 -10.240 22.156 255 0 0
-75.156 -9.384 22.263 255 0 0
-73.683 -8.487 21.806 255 0 0
-74.016 -7.799 21.886 255 0 0
-72.644 -6.765 21.487 255 0 0
-72.811 -6.089 21.523 255 0 0
-72.187 -5.275 21.313 255 0 0
-71.841 -4.433 21.182 255 0 0
-71.590 -3.718 21.100 255 0 0
-75.742 -12.139 22.776 255 0 0
-74.917 -10.853 22.498 255 0 0
-74.961 -9.782 22.461 255 0 0
-74.797 -9.045 22.391 255 0 0
-74.032 -8.213 22.078 255 0 0
-73.969 -7.312 22.065 255 0 0
-72.993 -6.438 21.763 255 0 0
-73.147 -5.749 21.796 255 0 0
-71.934 -4.598 21.405 255 0 0
-73.561 -3.979 21.861 255 0 0
-76.881 -13.087 23.347 255 0 0
-76.029 -11.595 23.075 255 0 0
-74.614 -10.251 22.602 255 0 0
-74.675 -9.340 22.568 255 0 0
-73.663 -8.501 22.241 255 0 0
-74.064 -7.706 22.315 255 0 0
-72.625 -6.780 21.851 255 0 0
-72.818 -6.106 21.895 255 0 0
-72.311 -5.280 21.740 255 0 0
-71.856 -4.456 21.581 255 0 0
-71.560 -3.739 21.484 255 0 0
-76.496 -12.420 23.378 255 0 0
-75.922 -11.451 23.254 255 0 0
-75.052 -9.961 22.918 255 0 0
-73.879 -9.087 22.537 255 0 0
-73.962 -8.307 22.550 255 0 0
-73.614 -7.228 22.406 255 0 0
-73.015 -6.449 22.145 255 0 0
-73.208 -5.764 22.190 255 0 0
-71.696 -4.782 21.757 255 0 0
-72.261 -4.106 21.919 255 0 0
-76.407 -12.283 23.628 255 0 0
-75.673 -10.987 23.375 255 0 0
-74.976 -9.821 23.102 255 0 0
-73.784 -8.958 22.712 255 0 0
-73.651 -7.908 22.648 255 0 0
-72.649 -6.966 22.334 255 0 0
-72.871 -6.285 22.387 255 0 0
-73.073 -5.512 22.383 255 0 0
-71.926 -4.614 22.016 255 0 0
-72.176 -3.934 22.084 255 0 0
-75.674 -10.994 23.572 255 0 0
-74.984 -9.833 23.296 255 0 0
-74.154 -9.014 23.015 255 0 0
-73.659 -7.915 22.862 255 0 0
-72.654 -6.974 22.522 255 0 0
-72.860 -6.291 22.571 255 0 0
-72.676 -5.490 22.448 255 0 0
-71.925 -4.619 22.200 255 0 0
-72.143 -3.904 22.269 255 0 0
-75.621 -10.909 23.759 255 0 0
-74.992 -9.849 23.554 255 0 0
-74.541 -9.072 23.326 255 0 0
-73.381 -7.835 22.960 255 0 0
-72.655 -6.981 22.710 255 0 0
-72.860 -6.298 22.758 255 0 0
-72.039 -5.369 22.506 255 0 0
-71.916 -4.625 22.444 255 0 0
-71.907 -3.912 22.426 255 0 0
-76.436 -12.330 24.357 255 0 0
-75.324 -10.377 23.860 255 0 0
-74.859 -9.579 23.687 255 0 0
-74.238 -8.532 23.507 255 0 0
-73.607 -7.453 23.267 255 0 0
-72.959 -6.695 23.008 255 0 0
-71.999 -5.846 22.676 255 0 0
-71.480 -4.953 22.515 255 0 0
-71.425 -4.246 22.487 255 0 0
-71.343 -3.558 22.515 255 0 0
-75.650 -10.933 24.225 255 0 0
-75.099 -10.021 24.028 255 0 0
-74.581 -9.143 23.802 255 0 0
-73.945 -8.023 23.660 255 0 0
-73.483 -7.245 23.443 255 0 0
-73.040 -6.482 23.285 255 0 0
-71.858 -5.611 22.848 255 0 0
-71.623 -4.812 22.716 255 0 0
-70.965 -4.068 22.498 255 0 0
-75.776 -10.957 24.397 255 0 0
-75.112 -10.032 24.226 255 0 0
-74.607 -9.179 24.043 255 0 0
-73.942 -8.026 23.787 255 0 0
-73.485 -7.251 23.635 255 0 0
-73.053 -6.489 23.479 255 0 0
-72.568 -5.673 23.262 255 0 0
-71.881 -4.839 23.045 255 0 0
-70.965 -4.077 22.742 255 0 0
-75.610 -10.741 24.683 255 0 0
-74.858 -9.597 24.337 255 0 0
-74.255 -8.562 24.153 255 0 0
-73.755 -7.701 23.975 255 0 0
-73.272 -6.886 23.781 255 0 0
-72.778 -6.055 23.569 255 0 0
-72.311 -5.249 23.397 255 0 0
-71.859 -4.453 23.231 255 0 0
-70.738 -3.692 22.860 255 0 0
-75.994 -11.567 25.035 255 0 0
-75.123 -10.057 24.685 255 0 0
-74.833 -9.288 24.564 255 0 0
-73.954 -8.040 24.241 255 0 0
-73.492 -7.264 24.084 255 0 0
-73.048 -6.501 23.921 255 0 0
-72.579 -5.689 23.705 255 0 0
-72.106 -4.871 23.553 255 0 0
-71.629 -4.063 23.332 255 0 0
-76.079 -11.706 25.191 255 0 0
-75.235 -10.239 24.908 255 0 0
-74.801 -9.438 24.738 255 0 0
-73.964 -8.047 24.438 255 0 0
-73.550 -7.275 24.295 255 0 0
-73.063 -6.508 24.117 255 0 0
-72.537 -5.621 23.894 255 0 0
-72.105 -4.878 23.740 255 0 0
-71.636 -4.075 23.581 255 0 0
-75.570 -10.775 25.322 255 0 0
-74.870 -9.618 24.995 255 0 0
-74.217 -8.517 24.788 255 0 0
-73.773 -7.695 24.641 255 0 0
-73.330 -6.892 24.433 255 0 0
-72.812 -6.095 24.203 255 0 0
-72.323 -5.274 24.025 255 0 0
-71.867 -4.465 23.859 255 0 0
-71.447 -3.740 23.711 255 0 0
-75.626 -10.913 25.536 255 0 0
-75.102 -10.029 25.331 255 0 0
-74.585 -8.847 25.202 255 0 0
-73.869 -7.897 24.835 255 0 0
-73.238 -6.862 24.613 255 0 0
-72.808 -6.107 24.390 255 0 0
-72.349 -5.283 24.221 255 0 0
-71.868 -4.468 24.048 255 0 0
-71.448 -3.743 23.898 255 0 0
-75.540 -10.796 25.705 255 0 0
-74.874 -9.632 25.456 255 0 0
-74.237 -8.539 25.182 255 0 0
-73.778 -7.695 25.004 255 0 0
-73.168 -6.695 24.781 255 0 0
-72.703 -5.888 24.610 255 0 0
-72.308 -5.058 24.470 255 0 0
-71.776 -4.313 24.216 255 0 0
-71.372 -3.601 24.071 255 0 0
-75.252 -10.279 25.836 255 0 0
-74.625 -9.217 25.596 255 0 0
-73.973 -8.073 25.282 255 0 0
-73.629 -7.309 25.223 255 0 0
-72.961 -6.456 24.925 255 0 0
-72.789 -5.676 24.864 255 0 0
-71.994 -4.696 24.574 255 0 0
-71.663 -3.922 24.402 255 0 0
-76.038 -11.662 26.436 255 0 0
-74.894 -9.648 25.925 255 0 0
-74.244 -8.563 25.637 255 0 0
-73.751 -7.718 25.443 255 0 0
-73.337 -6.911 25.280 255 0 0
-72.834 -6.152 25.089 255 0 0
-72.306 -5.071 24.912 255 0 0
-71.747 -4.257 24.658 255 0 0
-76.047 -11.676 26.638 255 0 0
-74.885 -9.653 26.121 255 0 0
-74.215 -8.513 25.820 255 0 0
-73.615 -7.466 25.599 255 0 0
