76.706 -0.445 17.010 255 110 110
76.626 -0.472 21.936 255 20 20
74.523 -4.959 10.579 99 99 99
73.946 -4.075 11.009 249 249 249
74.227 -4.524 11.235 225 225 225
74.238 -4.532 11.447 217 217 217
74.318 -4.684 10.704 238 238 238
74.328 -4.689 10.943 249 249 249
74.326 -4.692 11.121 255 255 255
74.029 -4.203 11.331 217 217 217
74.223 -4.425 11.553 204 204 204
76.268 -8.778 12.726 255 255 255
76.527 -7.660 12.132 227 227 227
76.428 -7.898 12.393 224 224 224
76.527 -8.379 12.629 251 251 251
76.513 -8.386 12.845 252 252 252
76.614 -8.310 12.381 255 255 255
76.503 -8.057 12.574 193 193 193
76.386 -7.825 12.737 193 193 193
74.873 -5.268 12.025 23 23 23
74.065 -5.252 12.023 158 158 158
74.004 -5.004 12.203 181 181 181
74.011 -5.003 12.383 194 194 194
74.015 -5.001 12.623 207 207 207
74.012 -5.244 12.792 255 255 255
73.925 -5.146 12.158 255 255 255
74.145 -4.938 12.325 197 197 197
74.123 -4.948 12.535 217 217 217
74.135 -4.940 12.703 215 215 215
74.272 -4.304 11.647 178 178 178
74.231 -4.044 11.838 26 26 26
74.242 -4.532 12.046 224 224 224
74.642 -3.602 12.122 39 39 39
74.240 -4.053 12.225 76 76 76
74.229 -4.044 12.436 75 75 75
74.239 -4.059 12.611 79 79 79
74.225 -4.523 12.820 230 230 230
74.227 -4.430 11.731 210 210 210
74.227 -4.434 11.908 224 224 224
74.479 -3.523 12.001 59 59 59
74.293 -4.220 12.134 39 39 39
74.217 -3.991 12.349 74 74 74
74.223 -3.995 12.529 65 65 65
74.221 -4.000 12.767 65 65 65
74.335 -3.303 11.859 45 45 45
74.672 -3.507 12.184 37 37 37
77.573 -1.748 12.771 108 108 108
75.568 -1.645 12.550 69 69 69
73.975 25.665 12.499 3 3 3
78.470 -11.891 13.713 223 223 223
77.842 -11.105 13.985 119 119 119
78.792 -11.666 13.856 255 255 255
77.699 -9.807 13.044 232 232 232
77.693 -9.800 13.420 221 221 221
77.686 -9.789 14.048 204 204 204
77.642 -10.048 13.091 255 255 255
77.362 -10.229 13.259 255 255 255
77.689 -10.024 13.406 255 255 255
77.344 -10.242 13.674 255 255 255
77.353 -10.233 13.887 255 255 255
77.331 -10.419 12.925 204 204 204
77.337 -10.428 13.174 255 255 255
77.726 -9.976 13.392 255 255 255
77.720 -9.982 13.642 255 255 255
77.722 -9.989 13.893 255 255 255
77.566 -10.740 14.066 164 164 164
77.631 -9.540 12.857 224 224 224
77.418 -9.246 13.070 241 241 241
77.689 -9.531 13.316 141 141 141
76.207 -8.580 13.059 255 255 255
76.340 -8.878 13.241 90 90 90
77.965 -9.310 13.763 94 94 94
77.809 -9.299 13.928 94 94 94
77.023 -9.458 14.009 140 140 140
76.203 -8.584 13.865 255 255 255
76.246 -8.696 14.062 255 255 255
77.348 -9.155 13.129 255 255 255
76.275 -8.792 13.154 255 255 255
76.276 -8.798 13.337 255 255 255
76.284 -8.807 13.582 255 255 255
77.585 -9.477 14.022 136 136 136
76.650 -7.636 12.886 141 141 141
76.480 -7.651 13.053 207 207 207
76.596 -8.140 13.284 238 238 238
76.548 -7.382 13.240 96 96 96
76.508 -8.382 13.495 251 251 251
76.656 -7.644 13.509 62 62 62
76.489 -8.392 13.682 238 238 238
76.644 -7.645 13.694 68 68 68
76.538 -7.652 13.871 62 62 62
76.513 -8.071 13.002 210 210 210
76.395 -7.837 13.231 210 210 210
76.382 -7.838 13.352 227 227 227
76.382 -7.842 13.537 215 215 215
76.564 -8.342 13.787 255 255 255
76.677 -7.360 13.817 102 102 102
76.531 -8.105 13.984 210 210 210
75.144 -7.012 13.829 153 153 153
75.348 -6.058 13.850 173 173 173
75.307 -6.542 14.074 216 216 216
75.351 -6.263 13.582 252 252 252
75.112 -6.986 13.729 255 255 255
75.406 -6.013 13.797 99 99 99
75.362 -6.518 13.991 219 219 219
75.493 -5.556 13.274 54 54 54
75.586 -5.597 13.459 83 83 83
75.744 -5.847 13.719 108 108 108
74.357 -4.775 13.450 255 255 255
74.027 -4.993 13.582 195 195 195
75.078 -5.556 13.978 137 137 137
73.987 -5.230 13.984 255 255 255
75.691 -5.800 13.497 59 59 59
73.943 -5.177 13.286 255 255 255
74.099 -4.964 13.506 215 215 215
75.501 -5.556 13.969 99 99 99
74.234 -4.528 13.033 231 231 231
74.238 -4.531 13.245 223 223 223
74.412 -3.833 13.457 57 57 57
74.236 -4.043 13.640 86 86 86
74.236 -4.531 13.848 225 225 225
74.365 -3.828 13.871 45 45 45
74.088 -4.279 14.018 181 181 181
74.352 -4.731 12.972 255 255 255
73.856 -3.746 12.889 147 147 147
74.351 -4.735 13.151 255 255 255
73.909 -3.759 13.110 123 123 123
74.465 -4.265 13.389 17 17 17
74.211 -4.015 13.542 79 79 79
74.196 -4.480 13.744 232 232 232
74.361 -4.755 13.993 255 255 255
73.879 -4.011 14.078 215 215 215
76.922 -2.210 13.237 48 48 48
76.722 -0.441 13.338 117 117 117
76.679 -0.435 13.497 68 68 68
77.976 -11.323 14.223 85 85 85
78.793 -11.673 14.111 255 255 255
78.452 -12.152 14.274 249 249 249
78.459 -12.159 14.465 232 232 232
78.300 -11.374 14.609 130 130 130
78.689 -11.440 14.936 201 201 201
78.704 -11.456 15.320 193 193 193
78.213 -10.608 15.301 218 218 218
77.404 -10.496 14.094 255 255 255
77.589 -10.790 14.355 228 228 228
77.608 -9.764 14.309 134 134 134
77.530 -10.264 14.529 168 168 168
77.997 -10.335 14.848 225 225 225
77.818 -10.061 15.021 207 207 207
77.640 -9.776 15.204 219 219 219
77.359 -10.468 14.232 255 255 255
77.595 -9.754 14.762 198 198 198
78.149 -10.597 15.007 193 193 193
77.613 -9.768 15.078 207 207 207
76.537 -9.148 14.325 224 224 224
77.058 -9.209 14.642 160 160 160
77.108 -8.949 14.841 210 210 210
76.940 -8.682 15.059 226 226 226
76.944 -8.691 15.239 232 232 232
76.852 -9.126 14.097 193 193 193
76.839 -9.648 14.309 96 96 96
76.219 -8.578 14.197 255 255 255
76.314 -8.838 14.383 249 249 249
77.238 -9.191 14.793 201 201 201
76.909 -8.671 14.951 232 232 232
77.082 -8.952 15.210 193 193 193
76.412 -7.881 14.098 185 185 185
76.502 -8.394 14.308 232 232 232
75.461 -7.534 14.097 249 249 249
76.632 -8.405 14.549 196 196 196
75.316 -7.269 14.276 255 255 255
76.583 -8.138 14.729 209 209 209
76.235 -7.617 14.870 177 177 177
76.230 -7.618 15.054 174 174 174
76.150 -7.564 14.133 159 159 159
75.628 -7.785 14.261 158 158 158
76.544 -8.131 14.662 193 193 193
76.207 -7.590 14.820 201 201 201
76.394 -7.879 15.026 223 223 223
76.731 -8.404 15.306 226 226 226
76.038 -7.350 15.166 176 176 176
75.403 -6.309 14.264 243 243 243
75.373 -7.036 14.512 205 205 205
75.569 -6.571 14.748 221 221 221
75.559 -6.570 14.931 215 215 215
75.900 -7.083 15.234 225 225 225
75.391 -6.303 15.097 224 224 224
75.032 -6.726 14.098 221 221 221
75.123 -7.001 14.339 255 255 255
75.436 -6.546 14.613 184 184 184
75.704 -6.804 14.835 227 227 227
75.538 -6.550 14.942 227 227 227
75.543 -6.567 15.246 205 205 205
74.485 -5.990 14.298 255 255 255
74.034 -4.987 14.184 177 177 177
74.706 -5.757 14.562 219 219 219
74.363 -4.774 14.444 251 251 251
75.062 -5.783 14.815 224 224 224
74.398 -4.773 14.668 233 233 233
74.723 -5.285 14.947 222 222 222
75.066 -5.779 15.245 223 223 223
74.403 -4.772 15.059 249 249 249
74.726 -5.285 15.315 221 221 221
75.010 -5.766 14.100 190 190 190
74.457 -5.955 14.223 255 255 255
74.069 -4.977 14.097 195 195 195
74.296 -5.722 14.386 253 253 253
74.363 -4.763 14.355 255 255 255
74.830 -5.995 14.656 223 223 223
74.081 -4.989 14.518 127 127 127
74.870 -5.534 14.884 249 249 249
74.878 -5.539 15.068 229 229 229
74.383 -4.785 15.204 255 255 255
74.079 -4.278 14.802 235 235 235
73.914 -4.025 14.955 243 243 243
74.075 -4.277 15.226 238 238 238
74.215 -4.511 14.764 235 235 235
74.215 -4.516 14.944 238 238 238
74.065 -4.291 15.312 223 223 223
78.726 -11.493 16.217 198 198 198
77.416 -10.475 16.412 243 243 243
77.635 -9.777 15.394 215 215 215
78.204 -10.371 15.740 113 113 113
77.640 -9.782 15.841 218 218 218
77.718 -10.042 16.157 147 147 147
77.644 -9.786 16.226 222 222 222
77.407 -10.519 16.447 216 216 216
77.801 -10.041 15.355 232 232 232
78.409 -10.902 15.682 121 121 121
77.619 -9.792 15.706 187 187 187
77.747 -10.060 16.168 91 91 91
77.399 -10.554 16.367 153 153 153
77.397 -10.561 16.555 124 124 124
77.325 -9.245 15.547 211 211 211
77.291 -8.726 15.942 56 56 56
77.267 -8.720 16.165 52 52 52
77.627 -9.522 16.484 181 181 181
76.318 -8.873 16.375 108 108 108
77.447 -9.497 15.510 224 224 224
76.938 -8.689 15.583 238 238 238
77.196 -8.989 15.856 116 116 116
77.616 -9.540 16.369 164 164 164
76.745 -8.961 16.385 17 17 17
76.585 -8.141 15.356 216 216 216
76.900 -8.438 15.641 170 170 170
76.288 -7.617 15.508 193 193 193
76.374 -7.643 15.706 170 170 170
76.463 -7.655 15.975 107 107 107
76.551 -8.399 16.200 132 132 132
76.492 -7.633 16.178 107 107 107
76.587 -8.129 16.432 225 225 225
76.526 -7.375 16.408 54 54 54
76.221 -7.611 15.440 198 198 198
76.391 -7.894 15.648 218 218 218
77.150 -8.470 16.016 45 45 45
76.509 -7.419 15.877 23 23 23
76.580 -8.188 16.089 209 209 209
76.409 -7.912 16.277 235 235 235
76.443 -8.412 16.492 249 249 249
76.527 -7.445 16.500 57 57 57
75.568 -6.570 15.367 224 224 224
75.809 -6.841 15.582 232 232 232
75.225 -6.052 15.454 208 208 208
76.268 -6.881 15.897 65 65 65
75.322 -6.060 15.691 237 237 237
75.949 -6.602 16.068 56 56 56
75.432 -6.504 16.176 173 173 173
75.304 -6.546 16.304 229 229 229
75.021 -6.763 16.472 245 245 245
75.338 -6.059 16.533 247 247 247
75.718 -6.826 15.513 232 232 232
75.380 -6.317 15.668 227 227 227
76.029 -7.121 15.998 193 193 193
75.324 -6.069 15.852 255 255 255
76.244 -6.894 16.240 96 96 96
75.397 -6.334 16.287 249 249 249
75.000 -6.795 16.403 226 226 226
74.799 -5.281 15.548 212 212 212
75.323 -5.793 15.913 42 42 42
74.401 -4.768 15.667 219 219 219
75.311 -5.559 16.087 8 8 8
75.338 -5.796 16.313 43 43 43
74.187 -5.001 16.108 0 0 0
74.001 -5.218 16.234 215 215 215
73.996 -5.256 16.408 255 255 255
75.045 -5.807 15.359 205 205 205
74.712 -5.291 15.473 238 238 238
74.865 -5.308 15.687 255 255 255
75.364 -5.851 16.035 43 43 43
75.102 -5.338 16.164 65 65 65
75.441 -5.862 16.445 43 43 43
73.980 -5.034 16.300 215 215 215
74.012 -5.281 16.532 255 255 255
74.086 -4.277 15.410 212 212 212
73.993 -4.025 15.576 232 232 232
74.238 -4.540 15.847 223 223 223
73.967 -3.791 15.790 91 91 91
74.470 -4.250 16.070 91 91 91
74.325 -4.290 16.316 127 127 127
74.034 -3.531 16.231 43 43 43
74.239 -4.543 16.458 219 219 219
73.985 -3.787 16.402 102 102 102
74.094 -4.302 15.536 205 205 205
74.235 -4.543 15.790 255 255 255
74.403 -4.083 15.992 34 34 34
74.235 -4.557 16.213 249 249 249
74.051 -3.591 16.149 43 43 43
74.378 -4.092 16.412 82 82 82
73.879 -3.301 15.984 22 22 22
75.184 -1.663 16.476 54 54 54
74.470 -2.115 16.470 54 54 54
78.764 -11.543 17.315 193 193 193
78.760 -11.548 17.443 210 210 210
77.652 -9.735 16.637 227 227 227
77.638 -9.716 17.464 221 221 221
77.323 -10.255 16.625 253 253 253
77.406 -10.522 16.831 205 205 205
77.647 -9.810 17.065 227 227 227
77.655 -9.816 17.324 221 221 221
77.416 -10.551 17.480 147 147 147
77.610 -10.063 16.773 255 255 255
77.679 -9.879 17.675 215 215 215
77.635 -9.514 16.879 168 168 168
76.203 -8.599 16.797 255 255 255
76.328 -8.809 17.029 221 221 221
76.328 -8.882 17.198 79 79 79
76.332 -8.885 17.452 76 76 76
76.204 -8.589 17.605 255 255 255
77.613 -9.557 17.006 221 221 221
77.602 -9.561 17.195 249 249 249
77.627 -9.571 17.457 215 215 215
76.192 -8.654 17.308 255 255 255
76.199 -8.667 17.750 255 255 255
76.483 -8.399 16.624 240 240 240
76.469 -7.627 16.614 102 102 102
76.447 -7.664 16.791 130 130 130
76.413 -7.870 16.982 231 231 231
76.594 -8.148 17.248 233 233 233
76.322 -7.376 17.174 90 90 90
76.590 -8.138 17.482 228 228 228
76.336 -7.366 17.411 118 118 118
76.501 -7.680 17.626 124 124 124
76.420 -7.925 16.718 249 249 249
76.419 -7.930 16.906 241 241 241
76.418 -8.431 17.112 255 255 255
76.458 -7.466 17.168 40 40 40
76.410 -7.692 17.348 235 235 235
76.425 -7.948 17.536 252 252 252
76.430 -7.956 17.790 241 241 241
75.143 -7.006 16.688 136 136 136
75.392 -6.296 16.733 235 235 235
75.391 -6.482 16.970 255 255 255
75.388 -6.478 17.155 255 255 255
75.013 -6.780 17.275 236 236 236
75.330 -6.071 17.337 217 217 217
75.406 -6.469 17.594 255 255 255
75.010 -6.802 16.589 255 255 255
75.408 -6.352 16.908 252 252 252
75.252 -6.588 17.055 236 236 236
75.018 -6.824 17.205 255 255 255
75.024 -6.831 17.391 238 238 238
75.291 -6.129 17.689 226 226 226
75.214 -5.545 16.917 2 2 2
74.361 -4.767 16.710 255 255 255
75.169 -5.543 17.110 8 8 8
73.992 -5.211 17.026 255 255 255
75.266 -5.549 17.568 88 88 88
74.084 -4.952 17.473 239 239 239
73.985 -5.205 17.638 255 255 255
75.491 -5.873 16.702 52 52 52
75.268 -5.616 17.053 6 6 6
74.325 -4.824 16.833 255 255 255
75.307 -5.878 17.278 131 131 131
73.982 -5.034 16.987 232 232 232
75.497 -5.911 17.541 70 70 70
73.978 -5.037 17.169 232 232 232
73.908 -5.087 17.349 244 244 244
73.906 -5.095 17.530 238 238 238
73.899 -5.105 17.769 235 235 235
74.340 -4.045 16.700 94 94 94
74.361 -4.755 16.882 255 255 255
74.328 -4.033 16.868 105 105 105
74.284 -4.286 17.105 130 130 130
74.360 -4.758 17.349 255 255 255
74.072 -4.029 17.252 190 190 190
74.264 -4.023 17.467 87 87 87
74.406 -4.236 17.761 83 83 83
74.244 -4.570 16.578 241 241 241
74.362 -4.100 16.713 91 91 91
74.347 -4.107 17.015 82 82 82
74.194 -4.105 17.224 153 153 153
74.254 -4.355 17.415 194 194 194
74.250 -4.384 17.601 186 186 186
75.463 -1.492 16.646 49 49 49
77.416 -10.560 17.930 113 113 113
77.462 -10.571 18.134 110 110 110
77.394 -10.351 18.769 91 91 91
77.553 -10.095 17.907 252 252 252
77.689 -9.900 18.122 210 210 210
77.489 -10.650 18.348 164 164 164
77.522 -10.114 18.540 235 235 235
77.707 -9.931 18.764 212 212 212
77.624 -9.705 17.910 227 227 227
76.331 -8.882 17.810 75 75 75
77.063 -9.208 18.238 171 171 171
76.706 -9.387 18.374 245 245 245
76.211 -8.584 18.240 255 255 255
76.315 -8.774 18.476 255 255 255
76.367 -8.776 18.679 201 201 201
76.391 -8.772 18.938 193 193 193
77.794 -9.136 17.876 91 91 91
77.449 -9.333 18.249 133 133 133
76.833 -9.051 18.284 113 113 113
76.418 -9.013 18.436 150 150 150
76.606 -9.255 18.683 192 192 192
76.807 -9.521 18.992 108 108 108
76.763 -8.533 18.959 153 153 153
76.598 -8.151 17.883 235 235 235
76.428 -7.356 17.831 79 79 79
76.505 -8.393 18.091 245 245 245
76.504 -7.534 18.091 96 96 96
76.344 -7.673 18.225 195 195 195
76.033 -7.823 18.411 170 170 170
76.490 -7.970 18.731 212 212 212
76.491 -7.969 18.922 211 211 211
76.628 -8.273 18.032 255 255 255
76.444 -7.968 18.172 218 218 218
76.450 -7.976 18.427 238 238 238
76.627 -8.304 18.722 232 232 232
75.388 -7.432 18.529 232 232 232
75.434 -7.448 18.789 170 170 170
75.314 -6.544 17.804 252 252 252
75.020 -6.785 17.899 253 253 253
75.333 -6.075 17.963 202 202 202
75.173 -7.002 18.191 216 216 216
75.395 -6.289 18.233 222 222 222
75.153 -6.999 18.373 255 255 255
75.390 -6.288 18.420 229 229 229
75.159 -6.999 18.563 239 239 239
75.389 -6.286 18.608 229 229 229
75.253 -7.006 18.838 243 243 243
75.386 -6.285 18.859 231 231 231
75.224 -6.047 19.006 211 211 211
76.360 -7.202 17.950 74 74 74
75.032 -6.848 17.824 244 244 244
75.032 -6.855 18.009 255 255 255
75.207 -7.111 18.301 255 255 255
75.278 -6.151 18.305 181 181 181
75.177 -6.639 18.496 194 194 194
75.434 -6.409 18.783 246 246 246
75.442 -6.416 18.973 232 232 232
75.459 -5.781 17.806 74 74 74
74.538 -5.392 18.018 180 180 180
74.387 -5.380 18.167 167 167 167
74.072 -5.357 18.275 255 255 255
74.073 -5.357 18.522 246 246 246
74.352 -5.220 18.779 201 201 201
74.532 -4.943 19.035 228 228 228
75.496 -5.953 17.977 79 79 79
75.438 -5.957 18.148 68 68 68
74.033 -5.333 17.994 172 172 172
74.356 -5.798 18.314 241 241 241
74.263 -4.860 18.227 255 255 255
74.214 -5.584 18.469 255 255 255
74.223 -5.590 18.656 255 255 255
74.443 -5.145 18.911 194 194 194
74.243 -4.539 17.905 223 223 223
74.240 -4.526 18.121 219 219 219
74.249 -4.554 18.306 215 215 215
74.241 -4.540 18.522 195 195 195
74.256 -4.380 17.814 175 175 175
74.260 -4.373 18.029 177 177 177
74.230 -3.913 18.211 51 51 51
74.298 -4.638 18.418 244 244 244
74.298 -4.647 18.663 243 243 243
78.260 -10.785 19.175 193 193 193
78.286 -10.816 19.763 187 187 187
77.615 -9.675 19.195 187 187 187
76.425 -8.707 19.176 175 175 175
76.734 -9.409 19.488 119 119 119
76.618 -8.597 19.409 130 130 130
76.541 -9.144 19.653 83 83 83
76.389 -8.917 19.763 181 181 181
76.393 -8.935 20.000 126 126 126
76.791 -9.525 19.180 113 113 113
76.782 -8.542 19.155 159 159 159
76.641 -9.287 19.391 119 119 119
76.808 -8.552 19.352 190 190 190
76.479 -9.071 19.522 102 102 102
76.476 -9.079 19.710 88 88 88
76.334 -8.747 19.941 167 167 167
76.467 -7.943 19.142 228 228 228
75.647 -7.679 19.140 108 108 108
76.785 -8.422 19.655 196 196 196
75.708 -7.486 19.395 187 187 187
76.616 -8.191 19.805 201 201 201
76.058 -7.303 19.647 215 215 215
76.612 -8.194 20.062 218 218 218
76.267 -7.300 19.925 112 112 112
76.617 -8.196 20.256 215 215 215
76.347 -7.282 20.171 51 51 51
75.470 -7.463 19.046 90 90 90
76.477 -8.009 19.451 235 235 235
76.483 -8.018 19.708 246 246 246
76.355 -7.782 19.857 221 221 221
76.530 -7.607 20.135 34 34 34
75.684 -6.820 19.134 194 194 194
75.567 -6.564 19.316 204 204 204
75.508 -6.431 19.495 227 227 227
75.503 -6.426 19.682 215 215 215
75.498 -6.419 19.933 226 226 226
75.316 -6.071 20.072 219 219 219
75.321 -6.924 19.199 223 223 223
75.455 -6.943 19.421 125 125 125
75.309 -6.194 19.372 238 238 238
75.671 -6.781 19.708 190 190 190
75.163 -6.003 19.564 195 195 195
75.828 -6.679 19.955 124 124 124
75.986 -6.828 20.167 22 22 22
75.304 -6.033 19.974 226 226 226
75.305 -6.045 20.224 240 240 240
75.058 -5.785 19.175 227 227 227
74.942 -5.588 19.352 219 219 219
74.980 -5.625 19.542 215 215 215
75.043 -5.610 19.783 174 174 174
74.423 -4.775 19.616 234 234 234
74.922 -5.249 19.928 99 99 99
74.991 -5.420 20.197 102 102 102
75.150 -5.979 19.065 207 207 207
74.804 -5.429 19.232 232 232 232
74.637 -5.175 19.394 212 212 212
75.153 -5.888 19.766 209 209 209
74.470 -4.912 19.516 246 246 246
74.712 -5.212 19.814 202 202 202
74.946 -5.219 20.098 29 29 29
74.775 -4.952 20.221 31 31 31
74.389 -4.750 19.214 239 239 239
74.382 -4.748 19.399 235 235 235
74.090 -4.225 19.720 217 217 217
74.241 -4.522 19.986 232 232 232
74.308 -4.184 20.214 58 58 58
74.152 -4.433 19.043 200 200 200
74.135 -4.374 19.667 210 210 210
74.202 -4.383 19.871 207 207 207
74.264 -4.192 20.013 23 23 23
77.765 -10.011 20.320 178 178 178
77.523 -10.111 20.947 255 255 255
77.371 -10.199 21.147 255 255 255
76.372 -8.498 20.431 157 157 157
76.228 -8.658 20.637 255 255 255
76.325 -8.492 20.805 249 249 249
76.320 -8.491 21.062 245 245 245
76.323 -8.491 21.257 249 249 249
76.247 -8.671 21.470 255 255 255
77.168 -8.628 20.342 85 85 85
77.307 -8.871 20.585 99 99 99
76.259 -8.541 20.485 170 170 170
76.221 -8.547 20.730 255 255 255
76.265 -8.773 20.949 255 255 255
76.198 -8.563 21.171 255 255 255
76.191 -8.570 21.361 255 255 255
76.404 -7.754 20.423 235 235 235
76.474 -7.950 20.649 218 218 218
76.400 -7.753 20.809 248 248 248
76.399 -7.752 21.067 239 239 239
76.399 -7.752 21.261 243 243 243
76.469 -7.941 21.488 214 214 214
76.373 -7.802 20.307 204 204 204
76.364 -7.809 20.496 224 224 224
76.489 -7.635 20.759 62 62 62
76.420 -7.737 20.977 150 150 150
76.424 -7.713 21.154 134 134 134
76.404 -7.662 21.436 138 138 138
76.054 -6.893 20.312 28 28 28
76.067 -7.073 20.511 99 99 99
75.380 -6.275 20.313 238 238 238
75.054 -6.782 20.457 188 188 188
75.315 -6.071 20.452 221 221 221
75.038 -6.805 20.674 251 251 251
75.341 -6.014 20.686 232 232 232
75.048 -6.760 20.870 249 249 249
75.341 -6.012 20.941 229 229 229
75.476 -7.048 21.190 152 152 152
75.311 -6.169 21.121 228 228 228
75.308 -6.536 21.350 255 255 255
75.996 -6.841 20.422 22 22 22
75.296 -6.647 20.448 136 136 136
75.000 -6.770 20.528 221 221 221
75.307 -6.064 20.599 238 238 238
75.173 -6.646 20.796 238 238 238
75.160 -6.651 21.046 249 249 249
75.406 -6.489 21.302 255 255 255
74.992 -6.815 21.401 255 255 255
75.295 -6.023 21.464 174 174 174
74.989 -5.249 20.388 23 23 23
74.504 -5.213 20.445 82 82 82
73.965 -5.173 20.547 255 255 255
74.290 -5.367 20.824 154 154 154
75.296 -5.799 21.334 62 62 62
74.045 -4.979 20.969 238 238 238
74.072 -5.350 21.202 155 155 155
74.042 -4.978 21.409 244 244 244
75.415 -5.923 20.469 62 62 62
74.969 -5.255 20.506 22 22 22
75.406 -5.931 20.848 85 85 85
74.151 -4.924 20.489 249 249 249
75.369 -5.871 21.091 68 68 68
74.149 -4.931 20.675 255 255 255
75.146 -5.532 21.200 28 28 28
73.926 -5.121 21.054 255 255 255
73.924 -5.127 21.304 255 255 255
74.215 -4.476 20.357 210 210 210
73.885 -3.540 20.283 20 20 20
74.222 -4.473 20.610 212 212 212
74.318 -4.646 20.822 243 243 243
73.858 -3.736 20.690 130 130 130
74.300 -4.224 21.029 96 96 96
74.315 -4.644 21.262 246 246 246
73.855 -3.730 21.127 136 136 136
74.168 -4.151 21.427 179 179 179
74.228 -4.394 20.316 227 227 227
74.353 -4.213 20.536 45 45 45
74.337 -4.218 20.719 45 45 45
74.354 -4.743 20.967 255 255 255
74.211 -4.020 20.918 51 51 51
74.221 -4.413 21.129 209 209 209
74.217 -4.419 21.379 198 198 198
73.990 -3.936 21.475 162 162 162
73.838 -3.473 20.574 19 19 19
77.359 -10.213 21.534 255 255 255
77.352 -10.218 21.663 255 255 255
77.583 -10.076 22.020 244 244 244
77.538 -10.105 22.660 227 227 227
76.833 -9.487 22.360 159 159 159
76.791 -9.478 22.478 255 255 255
76.320 -8.490 21.710 249 249 249
76.335 -8.866 21.952 102 102 102
76.313 -8.496 22.121 249 249 249
76.232 -8.652 22.348 255 255 255
76.455 -9.037 22.633 255 255 255
76.242 -8.647 22.751 226 226 226
76.286 -8.805 21.859 255 255 255
77.505 -9.329 22.432 91 91 91
76.244 -8.558 22.265 245 245 245
76.693 -9.431 22.624 255 255 255
76.445 -7.543 21.697 75 75 75
76.469 -7.936 21.943 218 218 218
76.582 -7.569 22.168 51 51 51
76.382 -7.748 22.361 208 208 208
76.479 -7.937 22.607 221 221 221
75.449 -7.463 22.525 255 255 255
75.327 -7.267 22.659 255 255 255
76.421 -8.429 21.650 221 221 221
76.155 -7.295 21.528 138 138 138
76.380 -7.867 21.847 221 221 221
76.387 -7.877 22.042 221 221 221
76.472 -7.347 22.266 42 42 42
76.547 -8.119 22.565 232 232 232
75.289 -7.256 22.562 255 255 255
76.438 -7.184 21.917 17 17 17
75.306 -6.168 21.567 226 226 226
75.309 -6.536 21.799 255 255 255
75.064 -6.882 21.959 255 255 255
75.367 -6.002 21.973 156 156 156
75.962 -7.132 22.428 156 156 156
75.304 -6.166 22.208 232 232 232
75.147 -6.643 22.423 245 245 245
75.431 -6.349 22.699 243 243 243
75.007 -6.829 21.657 255 255 255
75.340 -6.037 21.731 123 123 123
75.384 -6.510 21.934 255 255 255
75.123 -7.028 22.106 142 142 142
75.304 -6.199 22.120 217 217 217
75.167 -7.041 22.310 136 136 136
75.336 -6.241 22.358 216 216 216
75.363 -6.467 22.603 253 253 253
75.213 -6.612 22.754 223 223 223
75.379 -5.805 21.807 51 51 51
73.965 -5.161 21.553 255 255 255
74.053 -5.347 21.827 147 147 147
75.152 -5.786 22.384 170 170 170
74.052 -4.977 22.045 244 244 244
74.597 -5.544 22.443 192 192 192
74.314 -4.800 22.347 255 255 255
74.452 -5.918 22.598 255 255 255
73.953 -5.149 22.434 255 255 255
74.198 -5.510 22.704 242 242 242
74.314 -4.795 22.729 243 243 243
75.304 -5.574 21.941 45 45 45
74.341 -4.769 21.588 255 255 255
74.012 -5.306 21.717 252 252 252
74.019 -5.320 21.967 241 241 241
74.962 -5.576 22.476 189 189 189
74.319 -4.798 22.272 255 255 255
74.321 -5.721 22.497 215 215 215
74.061 -4.986 22.407 249 249 249
74.300 -5.727 22.681 255 255 255
74.052 -4.992 22.594 255 255 255
74.216 -4.462 21.616 215 215 215
74.319 -4.643 21.895 243 243 243
74.360 -4.281 22.127 74 74 74
74.259 -4.022 22.319 66 66 66
74.189 -4.449 22.496 189 189 189
74.269 -4.613 21.782 210 210 210
74.276 -4.626 22.033 212 212 212
74.307 -3.983 22.228 35 35 35
74.174 -4.268 22.432 141 141 141
73.971 -4.174 22.579 204 204 204
76.701 -9.441 22.822 249 249 249
76.570 -8.518 23.045 172 172 172
76.939 -8.732 23.330 204 204 204
76.958 -8.744 23.533 207 207 207
76.332 -7.735 23.197 244 244 244
76.066 -7.338 23.339 215 215 215
76.456 -7.900 23.710 221 221 221
76.447 -7.893 23.904 215 215 215
76.543 -8.126 22.760 244 244 244
75.539 -7.664 22.844 232 232 232
76.303 -7.756 23.333 204 204 204
76.446 -7.954 23.617 229 229 229
76.059 -7.364 23.705 226 226 226
75.061 -6.880 22.793 241 241 241
75.428 -6.351 23.088 218 218 218
75.940 -7.117 23.527 214 214 214
75.338 -6.213 23.320 219 219 219
75.627 -6.647 23.633 208 208 208
75.893 -7.065 23.902 214 214 214
75.336 -6.208 23.709 226 226 226
75.428 -6.667 23.047 185 185 185
75.578 -6.629 23.283 236 236 236
75.302 -6.216 23.441 198 198 198
75.661 -6.764 23.839 198 198 198
75.559 -6.595 23.922 241 241 241
74.439 -5.373 23.025 181 181 181
75.052 -5.776 23.452 215 215 215
74.558 -5.007 23.285 221 221 221
74.800 -5.398 23.523 229 229 229
75.174 -5.962 23.919 215 215 215
74.683 -5.187 23.685 215 215 215
74.679 -5.183 23.942 207 207 207
74.641 -5.760 22.977 175 175 175
74.033 -4.998 22.778 232 232 232
74.424 -5.405 23.092 170 170 170
75.175 -5.985 23.606 215 215 215
74.681 -5.229 23.438 218 218 218
75.063 -5.816 23.750 244 244 244
74.560 -5.057 23.579 244 244 244
74.570 -5.068 23.839 252 252 252
74.310 -4.639 22.974 231 231 231
74.309 -4.638 23.357 239 239 239
74.186 -4.436 23.517 215 215 215
74.186 -4.433 23.774 215 215 215
73.930 -3.996 23.875 232 232 232
74.309 -4.680 22.983 210 210 210
74.199 -4.485 23.917 218 218 218
76.450 -7.973 24.011 218 218 218
76.332 -7.811 24.250 184 184 184
76.350 -7.825 24.451 181 181 181
75.805 -6.916 24.129 221 221 221
75.946 -6.924 24.370 79 79 79
75.440 -6.361 24.397 212 212 212
76.076 -7.064 24.883 130 130 130
75.250 -6.066 24.590 217 217 217
76.079 -7.057 25.082 159 159 159
75.212 -6.006 24.777 219 219 219
75.638 -6.662 25.187 192 192 192
75.556 -6.605 24.181 232 232 232
76.037 -7.069 24.527 68 68 68
75.330 -6.266 24.283 187 187 187
75.676 -6.786 24.629 142 142 142
75.179 -6.009 24.452 221 221 221
75.678 -6.792 24.828 130 130 130
75.193 -6.016 24.653 215 215 215
75.478 -6.461 25.033 238 238 238
75.204 -6.030 25.115 227 227 227
75.179 -5.960 24.116 207 207 207
74.976 -5.551 24.234 205 205 205
74.427 -4.786 24.045 221 221 221
75.375 -5.226 24.558 96 96 96
75.195 -5.784 24.999 227 227 227
74.952 -5.430 25.132 186 186 186
74.552 -5.000 25.229 212 212 212
75.066 -5.826 24.010 229 229 229
74.832 -5.487 24.109 195 195 195
74.772 -5.258 24.307 198 198 198
74.353 -4.763 24.387 198 198 198
75.211 -5.703 24.865 34 34 34
74.483 -4.930 24.868 226 226 226
74.384 -4.803 25.035 181 181 181
74.180 -4.428 24.158 204 204 204
74.392 -4.747 24.483 221 221 221
74.043 -3.986 24.359 119 119 119
74.286 -4.582 24.635 246 246 246
73.850 -3.689 24.491 125 125 125
74.281 -4.575 24.891 232 232 232
73.839 -3.686 24.681 133 133 133
74.075 -4.202 25.044 224 224 224
74.086 -4.323 24.057 241 241 241
73.874 -3.957 24.231 206 206 206
74.214 -4.503 24.565 218 218 218
74.037 -4.189 24.709 201 201 201
74.055 -4.067 24.914 102 102 102
74.028 -4.207 25.090 201 201 201
74.096 -2.200 24.938 130 130 130
76.091 -7.253 25.254 232 232 232
76.389 -7.896 25.577 178 178 178
76.401 -7.914 25.844 173 173 173
76.416 -7.940 26.246 181 181 181
75.894 -7.024 25.481 204 204 204
75.346 -6.227 25.281 209 209 209
75.775 -6.877 25.633 215 215 215
75.219 -6.016 25.665 206 206 206
75.890 -7.001 26.134 204 204 204
75.703 -6.807 25.297 187 187 187
75.594 -6.658 25.504 226 226 226
75.892 -7.139 25.849 193 193 193
75.212 -6.044 25.577 204 204 204
75.448 -6.437 25.874 198 198 198
75.614 -6.686 26.164 212 212 212
75.473 -6.466 26.342 192 192 192
75.049 -5.772 25.411 212 212 212
74.669 -5.161 25.501 212 212 212
74.938 -5.596 25.794 210 210 210
74.943 -5.599 26.053 215 215 215
75.191 -5.977 26.351 194 194 194
74.654 -5.151 26.153 212 212 212
75.057 -5.770 26.457 189 189 189
74.560 -4.997 26.282 215 215 215
75.073 -5.825 25.342 222 222 222
74.497 -4.954 25.324 215 215 215
74.651 -5.187 25.554 224 224 224
74.905 -5.603 25.933 187 187 187
74.413 -4.848 25.749 187 187 187
74.728 -5.306 26.054 207 207 207
74.736 -5.312 26.254 204 204 204
74.636 -5.173 26.457 238 238 238
74.174 -4.412 25.256 215 215 215
74.392 -4.744 25.587 217 217 217
73.894 -3.939 25.400 221 221 221
74.387 -4.743 25.781 215 215 215
73.892 -3.932 25.592 227 227 227
74.163 -4.403 25.904 215 215 215
74.017 -4.174 26.093 208 208 208
74.167 -4.396 26.363 204 204 204
73.871 -3.900 26.426 221 221 221
74.112 -4.374 25.351 240 240 240
73.849 -3.948 25.520 221 221 221
74.240 -4.542 25.872 207 207 207
74.248 -4.549 26.071 210 210 210
74.141 -4.412 26.269 218 218 218
73.850 -3.964 26.367 204 204 204
74.380 -2.104 25.271 102 102 102
76.429 -7.971 26.714 176 176 176
75.474 -6.477 26.539 197 197 197
75.956 -7.228 27.189 170 170 170
75.462 -6.458 27.191 181 181 181
75.469 -6.476 27.458 176 176 176
75.203 -5.992 26.784 208 208 208
74.657 -5.146 26.549 212 212 212
74.945 -5.606 26.924 198 198 198
74.407 -4.784 26.647 211 211 211
74.944 -5.608 27.123 204 204 204
74.406 -4.788 26.911 202 202 202
74.953 -5.610 27.327 198 198 198
74.410 -4.791 27.111 209 209 209
74.847 -5.455 27.495 209 209 209
74.414 -4.798 27.577 214 214 214
75.176 -5.983 26.672 211 211 211
75.036 -5.794 26.830 215 215 215
74.498 -4.964 26.621 210 210 210
74.749 -5.333 26.919 176 176 176
74.755 -5.339 27.120 207 207 207
74.759 -5.347 27.388 198 198 198
74.772 -5.357 27.659 210 210 210
73.864 -3.889 26.684 215 215 215
73.855 -3.881 26.876 210 210 210
74.280 -4.549 27.263 221 221 221
74.153 -4.375 27.677 210 210 210
74.112 -4.359 26.659 222 222 222
74.120 -4.372 26.923 219 219 219
74.143 -4.406 27.169 232 232 232
74.115 -4.370 27.338 238 238 238
74.273 -4.597 27.593 204 204 204
73.875 -3.991 27.692 198 198 198
75.329 -6.143 27.919 175 175 175
75.478 -6.494 27.726 170 170 170
75.575 -6.619 27.905 201 201 201
74.685 -5.194 27.912 172 172 172
75.036 -5.797 27.947 175 175 175
74.500 -4.996 27.989 159 159 159
74.150 -4.371 27.941 136 136 136
74.028 -4.266 27.995 159 159 159
73.834 -3.996 28.074 0 0 0
74.197 -3.129 28.374 189 189 189
74.796 -2.893 28.928 193 193 193
74.155 -1.874 28.911 215 215 215
75.753 -4.397 29.116 181 181 181
75.307 -3.705 30.004 164 164 164
75.023 -3.145 29.160 215 215 215
74.496 -2.357 30.023 130 130 130
74.911 -3.059 29.188 226 226 226
74.902 -3.051 29.432 228 228 228
74.875 -3.022 29.647 227 227 227
74.379 -2.422 30.112 85 85 85
74.188 -2.289 30.155 34 34 34
74.284 -2.030 29.023 221 221 221
74.436 -2.265 29.282 217 217 217
74.278 -2.030 29.492 208 208 208
74.034 -1.603 29.615 222 222 222
74.188 -2.218 30.099 31 31 31
74.117 -1.817 29.132 218 218 218
74.383 -1.085 29.202 139 139 139
74.133 -1.842 29.306 213 213 213
74.319 -1.128 29.377 141 141 141
74.125 -1.828 29.538 211 211 211
74.338 -1.115 29.622 136 136 136
74.394 -2.274 29.905 194 194 194
74.123 -1.248 29.781 136 136 136
73.905 -1.519 29.890 193 193 193
74.663 -0.892 29.376 138 138 138
74.603 -0.910 30.061 113 113 113
74.249 -0.877 30.104 26 26 26
76.600 -0.259 17.032 23 23 23
74.111 -0.293 20.618 113 113 113
74.609 -2.023 20.659 43 43 43
73.836 -1.703 20.781 32 32 32
74.566 -2.073 21.208 62 62 62
74.555 -2.079 21.394 59 59 59
74.478 -2.120 21.702 59 59 59
76.757 -0.461 21.814 111 111 111
