59.727 -1.492 -3.123 0 0 255
59.682 -1.190 -2.883 0 0 255
59.783 -1.773 -2.891 0 0 255
-71.193 -20.951 -2.094 255 0 0
-66.653 -10.081 1.296 255 0 0
-72.543 -26.234 1.856 255 0 0
-72.173 -26.102 2.025 255 0 0
-71.315 -26.573 2.296 255 0 0
-68.765 -18.560 3.038 255 0 0
-68.735 -19.118 3.225 255 0 0
-68.649 -21.782 3.464 255 0 0
-75.960 -20.740 3.686 255 0 0
34.421 4.603 2.193 0 0 255
34.538 4.236 2.232 0 0 255
44.664 5.961 2.971 0 0 255
34.898 5.740 2.440 0 0 255
34.369 4.581 2.383 0 0 255
45.194 7.719 3.295 0 0 255
34.350 4.743 2.472 0 0 255
75.248 9.772 5.595 0 0 255
65.399 -1.451 4.808 0 0 255
-72.115 -0.254 5.332 255 0 0
45.110 5.882 3.483 0 0 255
65.696 -1.358 5.045 0 0 255
55.370 7.373 4.454 0 0 255
60.526 8.184 4.984 0 0 255
34.672 4.621 2.955 0 0 255
68.786 -1.687 5.907 0 0 255
42.430 9.962 3.791 0 0 255
53.359 11.967 4.744 0 0 255
56.442 8.569 5.114 0 0 255
45.977 6.522 4.142 0 0 255
46.307 6.036 4.276 0 0 255
42.264 9.885 4.130 0 0 255
39.682 5.802 3.923 0 0 255
78.833 10.435 8.172 0 0 255
78.438 10.588 8.273 0 0 255
-66.926 -4.628 8.536 255 0 0
-73.946 -4.075 11.009 255 0 0
-74.227 -4.524 11.235 255 0 0
-74.238 -4.532 11.447 255 0 0
-72.631 -2.087 11.151 255 0 0
-74.272 -4.304 11.647 255 0 0
-76.527 -7.660 12.132 255 0 0
-74.873 -5.268 12.025 255 0 0
-74.231 -4.044 11.838 255 0 0
-74.335 -3.303 11.859 255 0 0
-70.026 -8.797 11.429 255 0 0
-66.465 -7.626 10.844 255 0 0
-76.428 -7.898 12.393 255 0 0
-74.065 -5.252 12.023 255 0 0
-74.242 -4.532 12.046 255 0 0
-74.642 -3.602 12.122 255 0 0
-70.686 -9.353 11.733 255 0 0
-77.631 -9.540 12.857 255 0 0
-76.527 -8.379 12.629 255 0 0
-74.004 -5.004 12.203 255 0 0
-74.240 -4.053 12.225 255 0 0
-73.104 -3.250 12.016 255 0 0
-73.028 -2.352 12.023 255 0 0
-77.573 -1.748 12.771 255 0 0
-77.642 -10.048 13.091 255 0 0
-77.418 -9.246 13.070 255 0 0
-76.513 -8.386 12.845 255 0 0
-76.650 -7.636 12.886 255 0 0
-74.011 -5.003 12.383 255 0 0
-74.229 -4.044 12.436 255 0 0
-73.034 -3.248 12.241 255 0 0
-73.025 -2.350 12.199 255 0 0
-71.667 -1.613 11.972 255 0 0
-71.888 -0.683 12.022 255 0 0
-77.362 -10.229 13.259 255 0 0
-77.689 -9.531 13.316 255 0 0
-76.207 -8.580 13.059 255 0 0
-76.480 -7.651 13.053 255 0 0
-74.015 -5.001 12.623 255 0 0
-74.239 -4.059 12.611 255 0 0
-73.033 -3.248 12.418 255 0 0
-73.022 -2.349 12.434 255 0 0
-71.657 -1.611 12.202 255 0 0
-71.888 -0.681 12.196 255 0 0
-78.470 -11.891 13.713 255 0 0
-77.689 -10.024 13.406 255 0 0
-76.340 -8.878 13.241 255 0 0
-76.596 -8.140 13.284 255 0 0
-76.548 -7.382 13.240 255 0 0
-74.012 -5.244 12.792 255 0 0
-74.225 -4.523 12.820 255 0 0
-72.888 -3.512 12.600 255 0 0
-73.132 -2.809 12.603 255 0 0
-76.922 -2.210 13.237 255 0 0
-72.067 -1.171 12.464 255 0 0
-77.344 -10.242 13.674 255 0 0
-77.965 -9.310 13.763 255 0 0
-76.508 -8.382 13.495 255 0 0
-76.656 -7.644 13.509 255 0 0
-75.493 -5.556 13.274 255 0 0
-74.234 -4.528 13.033 255 0 0
-72.891 -3.510 12.777 255 0 0
-73.129 -2.811 12.817 255 0 0
-71.771 -1.827 12.601 255 0 0
-71.930 -0.922 12.598 255 0 0
-77.842 -11.105 13.985 255 0 0
-77.353 -10.233 13.887 255 0 0
-77.809 -9.299 13.928 255 0 0
-76.489 -8.392 13.682 255 0 0
-76.644 -7.645 13.694 255 0 0
-75.586 -5.597 13.459 255 0 0
-74.238 -4.531 13.245 255 0 0
-72.889 -3.508 13.012 255 0 0
-73.132 -2.812 13.033 255 0 0
-71.801 -1.838 12.773 255 0 0
-71.935 -0.921 12.832 255 0 0
-77.976 -11.323 14.223 255 0 0
-77.404 -10.496 14.094 255 0 0
-77.023 -9.458 14.009 255 0 0
-76.203 -8.584 13.865 255 0 0
-76.538 -7.652 13.871 255 0 0
-75.744 -5.847 13.719 255 0 0
-74.357 -4.775 13.450 255 0 0
-74.412 -3.833 13.457 255 0 0
-73.273 -3.056 13.249 255 0 0
-72.789 -2.091 13.056 255 0 0
-72.062 -1.164 13.045 255 0 0
-77.589 -10.790 14.355 255 0 0
-77.608 -9.764 14.309 255 0 0
-76.246 -8.696 14.062 255 0 0
-76.412 -7.881 14.098 255 0 0
-75.144 -7.012 13.829 255 0 0
-75.348 -6.058 13.850 255 0 0
-74.027 -4.993 13.582 255 0 0
-74.236 -4.043 13.640 255 0 0
-73.025 -3.253 13.423 255 0 0
-73.384 -2.354 13.446 255 0 0
-71.900 -1.368 13.183 255 0 0
-77.530 -10.264 14.529 255 0 0
-76.537 -9.148 14.325 255 0 0
-76.502 -8.394 14.308 255 0 0
-75.461 -7.534 14.097 255 0 0
-75.307 -6.542 14.074 255 0 0
-75.078 -5.556 13.978 255 0 0
-74.236 -4.531 13.848 255 0 0
-74.365 -3.828 13.871 255 0 0
-73.278 -3.053 13.666 255 0 0
-73.315 -2.100 13.657 255 0 0
-72.063 -1.159 13.395 255 0 0
-77.997 -10.335 14.848 255 0 0
-77.058 -9.209 14.642 255 0 0
-76.632 -8.405 14.549 255 0 0
-75.316 -7.269 14.276 255 0 0
-75.403 -6.309 14.264 255 0 0
-73.987 -5.230 13.984 255 0 0
-74.088 -4.279 14.018 255 0 0
-72.887 -3.501 13.779 255 0 0
-73.130 -2.802 13.786 255 0 0
-71.772 -1.829 13.557 255 0 0
-71.942 -0.916 13.592 255 0 0
-77.818 -10.061 15.021 255 0 0
-77.108 -8.949 14.841 255 0 0
-76.583 -8.138 14.729 255 0 0
-75.373 -7.036 14.512 255 0 0
-74.485 -5.990 14.298 255 0 0
-74.034 -4.987 14.184 255 0 0
-73.393 -4.226 14.048 255 0 0
-73.003 -3.265 14.004 255 0 0
-73.048 -2.338 13.978 255 0 0
-71.912 -1.363 13.767 255 0 0
-72.222 -0.450 13.836 255 0 0
-77.640 -9.776 15.204 255 0 0
-76.940 -8.682 15.059 255 0 0
-76.235 -7.617 14.870 255 0 0
-75.569 -6.571 14.748 255 0 0
-74.706 -5.757 14.562 255 0 0
-74.363 -4.774 14.444 255 0 0
-73.206 -3.991 14.215 255 0 0
-73.271 -3.049 14.260 255 0 0
-72.003 -2.054 13.995 255 0 0
-72.060 -1.151 13.979 255 0 0
-77.635 -9.777 15.394 255 0 0
-76.944 -8.691 15.239 255 0 0
-76.230 -7.618 15.054 255 0 0
-75.559 -6.570 14.931 255 0 0
-75.062 -5.783 14.815 255 0 0
-74.398 -4.773 14.668 255 0 0
-73.202 -3.986 14.403 255 0 0
-73.265 -3.048 14.438 255 0 0
-71.952 -2.058 14.148 255 0 0
-72.049 -1.147 14.211 255 0 0
-71.159 -0.205 14.025 255 0 0
-78.204 -10.371 15.740 255 0 0
-77.325 -9.245 15.547 255 0 0
-76.585 -8.141 15.356 255 0 0
-75.900 -7.083 15.234 255 0 0
-75.391 -6.303 15.097 255 0 0
-74.723 -5.285 14.947 255 0 0
-74.079 -4.278 14.802 255 0 0
-73.408 -3.514 14.670 255 0 0
-72.398 -2.538 14.476 255 0 0
-71.653 -1.597 14.294 255 0 0
-71.040 -0.652 14.179 255 0 0
-77.640 -9.782 15.841 255 0 0
-76.900 -8.438 15.641 255 0 0
-76.288 -7.617 15.508 255 0 0
-75.568 -6.570 15.367 255 0 0
-75.066 -5.779 15.245 255 0 0
-74.403 -4.772 15.059 255 0 0
-73.914 -4.025 14.955 255 0 0
-73.271 -3.045 14.858 255 0 0
-72.656 -2.065 14.713 255 0 0
-72.043 -1.142 14.561 255 0 0
-70.783 -0.201 14.297 255 0 0
-77.718 -10.042 16.157 255 0 0
-77.291 -8.726 15.942 255 0 0
-76.374 -7.643 15.706 255 0 0
-75.809 -6.841 15.582 255 0 0
-75.225 -6.052 15.454 255 0 0
-74.726 -5.285 15.315 255 0 0
-74.075 -4.277 15.226 255 0 0
-73.597 -3.522 15.111 255 0 0
-72.967 -2.557 14.972 255 0 0
-72.351 -1.609 14.847 255 0 0
-71.551 -0.655 14.654 255 0 0
-77.644 -9.786 16.226 255 0 0
-77.267 -8.720 16.165 255 0 0
-76.463 -7.655 15.975 255 0 0
-76.268 -6.881 15.897 255 0 0
-75.322 -6.060 15.691 255 0 0
-74.799 -5.281 15.548 255 0 0
-74.086 -4.277 15.410 255 0 0
-73.598 -3.520 15.292 255 0 0
-72.961 -2.557 15.185 255 0 0
-72.351 -1.607 15.025 255 0 0
-71.736 -0.651 14.902 255 0 0
-77.407 -10.519 16.447 255 0 0
-77.627 -9.522 16.484 255 0 0
-76.551 -8.399 16.200 255 0 0
-76.492 -7.633 16.178 255 0 0
-75.949 -6.602 16.068 255 0 0
-75.323 -5.793 15.913 255 0 0
-74.401 -4.768 15.667 255 0 0
-73.993 -4.025 15.576 255 0 0
-73.254 -3.040 15.454 255 0 0
-72.652 -2.056 15.304 255 0 0
-72.042 -1.133 15.149 255 0 0
-77.323 -10.255 16.625 255 0 0
-76.318 -8.873 16.375 255 0 0
-76.587 -8.129 16.432 255 0 0
-76.526 -7.375 16.408 255 0 0
-75.432 -6.504 16.176 255 0 0
-75.311 -5.559 16.087 255 0 0
-74.238 -4.540 15.847 255 0 0
-73.967 -3.791 15.790 255 0 0
-73.127 -2.788 15.574 255 0 0
-72.519 -1.840 15.473 255 0 0
-71.896 -0.900 15.343 255 0 0
-77.406 -10.522 16.831 255 0 0
-77.635 -9.514 16.879 255 0 0
-76.483 -8.399 16.624 255 0 0
-76.469 -7.627 16.614 255 0 0
-75.304 -6.546 16.304 255 0 0
-75.338 -5.796 16.313 255 0 0
-74.187 -5.001 16.108 255 0 0
-74.470 -4.250 16.070 255 0 0
-73.879 -3.301 15.984 255 0 0
-72.966 -2.321 15.751 255 0 0
-72.279 -1.374 15.620 255 0 0
-71.770 -0.644 15.496 255 0 0
-77.647 -9.810 17.065 255 0 0
-76.203 -8.599 16.797 255 0 0
-76.447 -7.664 16.791 255 0 0
-75.021 -6.763 16.472 255 0 0
-75.338 -6.059 16.533 255 0 0
-74.001 -5.218 16.234 255 0 0
-74.325 -4.290 16.316 255 0 0
-74.034 -3.531 16.231 255 0 0
-73.037 -2.552 15.968 255 0 0
-75.184 -1.663 16.476 255 0 0
-71.945 -0.897 15.767 255 0 0
-77.655 -9.816 17.324 255 0 0
-76.328 -8.809 17.029 255 0 0
-76.413 -7.870 16.982 255 0 0
-75.143 -7.006 16.688 255 0 0
-75.392 -6.296 16.733 255 0 0
-73.996 -5.256 16.408 255 0 0
-74.239 -4.543 16.458 255 0 0
-73.985 -3.787 16.402 255 0 0
-73.253 -3.034 16.236 255 0 0
-74.470 -2.115 16.470 255 0 0
-72.158 -1.314 15.976 255 0 0
-76.706 -0.445 17.010 255 0 0
-77.416 -10.551 17.480 255 0 0
-76.328 -8.882 17.198 255 0 0
-76.594 -8.148 17.248 255 0 0
-76.322 -7.376 17.174 255 0 0
-75.391 -6.482 16.970 255 0 0
-75.214 -5.545 16.917 255 0 0
-74.361 -4.767 16.710 255 0 0
-74.340 -4.045 16.700 255 0 0
-73.036 -3.252 16.378 255 0 0
-73.047 -2.318 16.369 255 0 0
-73.715 -1.400 16.537 255 0 0
-75.531 -0.671 16.928 255 0 0
-76.332 -8.885 17.452 255 0 0
-76.590 -8.138 17.482 255 0 0
-76.336 -7.366 17.411 255 0 0
-75.388 -6.478 17.155 255 0 0
-75.169 -5.543 17.110 255 0 0
-74.361 -4.755 16.882 255 0 0
-74.328 -4.033 16.868 255 0 0
-73.048 -3.249 16.561 255 0 0
-73.054 -2.316 16.612 255 0 0
-71.901 -1.365 16.308 255 0 0
-75.147 -0.655 17.061 255 0 0
-77.416 -10.560 17.930 255 0 0
-76.204 -8.589 17.605 255 0 0
-76.501 -7.680 17.626 255 0 0
-75.013 -6.780 17.275 255 0 0
-75.330 -6.071 17.337 255 0 0
-73.992 -5.211 17.026 255 0 0
-74.284 -4.286 17.105 255 0 0
-72.876 -3.500 16.776 255 0 0
-73.119 -2.777 16.775 255 0 0
-71.779 -1.808 16.519 255 0 0
-72.030 -1.110 16.564 255 0 0
-77.462 -10.571 18.134 255 0 0
-76.331 -8.882 17.810 255 0 0
-76.598 -8.151 17.883 255 0 0
-76.428 -7.356 17.831 255 0 0
-75.406 -6.469 17.594 255 0 0
-75.266 -5.549 17.568 255 0 0
-74.360 -4.758 17.349 255 0 0
-74.072 -4.029 17.252 255 0 0
-73.058 -3.243 16.985 255 0 0
-73.072 -2.313 16.978 255 0 0
-71.902 -1.364 16.725 255 0 0
-71.872 -0.660 16.719 255 0 0
-77.063 -9.208 18.238 255 0 0
-76.505 -8.393 18.091 255 0 0
-76.504 -7.534 18.091 255 0 0
-75.314 -6.544 17.804 255 0 0
-75.459 -5.781 17.806 255 0 0
-74.084 -4.952 17.473 255 0 0
-74.264 -4.023 17.467 255 0 0
-73.061 -3.240 17.167 255 0 0
-72.993 -2.308 17.201 255 0 0
-71.907 -1.364 16.905 255 0 0
-71.873 -0.659 16.898 255 0 0
-76.706 -9.387 18.374 255 0 0
-76.211 -8.584 18.240 255 0 0
-76.344 -7.673 18.225 255 0 0
-75.020 -6.785 17.899 255 0 0
-75.333 -6.075 17.963 255 0 0
-73.985 -5.205 17.638 255 0 0
-74.406 -4.236 17.761 255 0 0
-72.920 -3.342 17.381 255 0 0
-73.039 -2.546 17.390 255 0 0
-71.668 -1.573 17.066 255 0 0
-71.955 -0.884 17.135 255 0 0
-77.394 -10.351 18.769 255 0 0
-76.315 -8.774 18.476 255 0 0
-76.033 -7.823 18.411 255 0 0
-75.173 -7.002 18.191 255 0 0
-75.395 -6.289 18.233 255 0 0
-74.538 -5.392 18.018 255 0 0
-74.243 -4.539 17.905 255 0 0
-72.880 -3.498 17.563 255 0 0
-73.113 -2.769 17.620 255 0 0
-71.770 -1.819 17.302 255 0 0
-72.016 -1.096 17.334 255 0 0
-76.367 -8.776 18.679 255 0 0
-76.490 -7.970 18.731 255 0 0
-75.153 -6.999 18.373 255 0 0
-75.390 -6.288 18.420 255 0 0
-74.387 -5.380 18.167 255 0 0
-74.240 -4.526 18.121 255 0 0
-72.873 -3.497 17.804 255 0 0
-73.099 -2.741 17.803 255 0 0
-71.766 -1.798 17.466 255 0 0
-72.025 -1.093 17.515 255 0 0
-76.391 -8.772 18.938 255 0 0
-76.491 -7.969 18.922 255 0 0
-75.159 -6.999 18.563 255 0 0
-75.389 -6.286 18.608 255 0 0
-74.072 -5.357 18.275 255 0 0
-74.249 -4.554 18.306 255 0 0
-72.876 -3.497 17.987 255 0 0
-73.104 -2.751 18.014 255 0 0
-71.769 -1.807 17.682 255 0 0
-72.015 -1.088 17.751 255 0 0
-76.425 -8.707 19.176 255 0 0
-76.467 -7.943 19.142 255 0 0
-75.253 -7.006 18.838 255 0 0
-75.386 -6.285 18.859 255 0 0
-74.073 -5.357 18.522 255 0 0
-74.241 -4.540 18.522 255 0 0
-72.876 -3.497 18.169 255 0 0
-73.107 -2.763 18.226 255 0 0
-72.055 -1.824 17.970 255 0 0
-72.014 -1.085 17.931 255 0 0
-76.734 -9.409 19.488 255 0 0
-76.618 -8.597 19.409 255 0 0
-75.647 -7.679 19.140 255 0 0
-75.684 -6.820 19.134 255 0 0
-75.224 -6.047 19.006 255 0 0
-74.352 -5.220 18.779 255 0 0
-73.332 -4.175 18.507 255 0 0
-72.897 -3.352 18.371 255 0 0
-72.492 -2.509 18.247 255 0 0
-71.641 -1.562 18.073 255 0 0
-71.924 -0.872 18.144 255 0 0
-76.541 -9.144 19.653 255 0 0
-76.785 -8.422 19.655 255 0 0
-75.708 -7.486 19.395 255 0 0
-75.567 -6.564 19.316 255 0 0
-75.058 -5.785 19.175 255 0 0
-74.532 -4.943 19.035 255 0 0
-73.249 -3.967 18.667 255 0 0
-73.174 -3.221 18.651 255 0 0
-72.098 -2.265 18.370 255 0 0
-71.902 -1.361 18.280 255 0 0
-71.754 -0.655 18.244 255 0 0
-76.389 -8.917 19.763 255 0 0
-76.616 -8.191 19.805 255 0 0
-76.058 -7.303 19.647 255 0 0
-75.508 -6.431 19.495 255 0 0
-74.942 -5.588 19.352 255 0 0
-74.389 -4.750 19.214 255 0 0
-73.185 -3.720 18.838 255 0 0
-73.209 -3.008 18.839 255 0 0
-71.926 -2.017 18.529 255 0 0
-72.057 -1.245 18.566 255 0 0
-70.988 -0.547 18.292 255 0 0
-76.393 -8.935 20.000 255 0 0
-76.612 -8.194 20.062 255 0 0
-76.267 -7.300 19.925 255 0 0
-75.503 -6.426 19.682 255 0 0
-74.980 -5.625 19.542 255 0 0
-74.382 -4.748 19.399 255 0 0
-73.167 -3.717 19.078 255 0 0
-73.210 -3.006 19.085 255 0 0
-72.385 -1.987 18.830 255 0 0
-72.102 -1.241 18.758 255 0 0
-70.987 -0.542 18.469 255 0 0
-76.617 -8.196 20.256 255 0 0
-76.347 -7.282 20.171 255 0 0
-75.498 -6.419 19.933 255 0 0
-75.043 -5.610 19.783 255 0 0
-74.423 -4.775 19.616 255 0 0
-73.585 -3.736 19.372 255 0 0
-73.211 -3.004 19.269 255 0 0
-72.784 -2.280 19.154 255 0 0
-72.186 -1.364 18.957 255 0 0
-71.323 -0.649 18.731 255 0 0
-76.372 -8.498 20.431 255 0 0
-76.404 -7.754 20.423 255 0 0
-76.054 -6.893 20.312 255 0 0
-75.316 -6.071 20.072 255 0 0
-74.922 -5.249 19.928 255 0 0
-74.090 -4.225 19.720 255 0 0
-73.478 -3.333 19.568 255 0 0
-73.010 -2.610 19.440 255 0 0
-72.498 -1.833 19.294 255 0 0
-71.995 -1.061 19.127 255 0 0
-71.545 -0.359 19.009 255 0 0
-76.228 -8.658 20.637 255 0 0
-76.474 -7.950 20.649 255 0 0
-76.067 -7.073 20.511 255 0 0
-75.380 -6.275 20.313 255 0 0
-74.991 -5.420 20.197 255 0 0
-74.241 -4.522 19.986 255 0 0
-73.781 -3.536 19.880 255 0 0
-73.118 -2.790 19.636 255 0 0
-72.608 -1.981 19.495 255 0 0
-72.124 -1.225 19.365 255 0 0
-71.676 -0.531 19.246 255 0 0
-76.325 -8.492 20.805 255 0 0
-76.400 -7.753 20.809 255 0 0
-75.054 -6.782 20.457 255 0 0
-75.315 -6.071 20.452 255 0 0
-74.989 -5.249 20.388 255 0 0
-74.308 -4.184 20.214 255 0 0
-73.740 -3.355 20.036 255 0 0
-73.032 -2.620 19.840 255 0 0
-72.505 -1.813 19.683 255 0 0
-71.990 -1.052 19.548 255 0 0
-71.537 -0.351 19.427 255 0 0
-76.320 -8.491 21.062 255 0 0
-76.399 -7.752 21.067 255 0 0
-75.038 -6.805 20.674 255 0 0
-75.341 -6.014 20.686 255 0 0
-74.504 -5.213 20.445 255 0 0
-74.215 -4.476 20.357 255 0 0
-73.885 -3.540 20.283 255 0 0
-73.125 -2.789 20.069 255 0 0
-73.954 -2.059 20.293 255 0 0
-72.114 -1.213 19.784 255 0 0
-71.674 -0.519 19.665 255 0 0
-76.323 -8.491 21.257 255 0 0
-76.399 -7.752 21.261 255 0 0
-75.048 -6.760 20.870 255 0 0
-75.341 -6.012 20.941 255 0 0
-73.965 -5.173 20.547 255 0 0
-74.222 -4.473 20.610 255 0 0
-73.419 -3.517 20.403 255 0 0
-73.124 -2.788 20.254 255 0 0
-74.609 -2.023 20.659 255 0 0
-72.120 -1.208 19.967 255 0 0
-74.303 -0.533 20.573 255 0 0
-76.247 -8.671 21.470 255 0 0
-76.469 -7.941 21.488 255 0 0
-75.476 -7.048 21.190 255 0 0
-75.311 -6.169 21.121 255 0 0
-74.290 -5.367 20.824 255 0 0
-74.318 -4.646 20.822 255 0 0
-73.858 -3.736 20.690 255 0 0
-73.197 -2.990 20.499 255 0 0
-73.376 -2.283 20.546 255 0 0
-75.531 -1.424 21.109 255 0 0
-71.867 -0.651 20.086 255 0 0
-76.320 -8.490 21.710 255 0 0
-76.445 -7.543 21.697 255 0 0
-75.308 -6.536 21.350 255 0 0
-75.296 -5.799 21.334 255 0 0
-74.045 -4.979 20.969 255 0 0
-74.300 -4.224 21.029 255 0 0
-72.939 -3.302 20.654 255 0 0
-73.023 -2.603 20.674 255 0 0
-72.647 -1.833 20.559 255 0 0
-71.984 -1.036 20.335 255 0 0
-71.694 -0.335 20.254 255 0 0
-76.335 -8.866 21.952 255 0 0
-76.469 -7.936 21.943 255 0 0
-76.438 -7.184 21.917 255 0 0
-75.306 -6.168 21.567 255 0 0
-74.072 -5.350 21.202 255 0 0
-74.315 -4.644 21.262 255 0 0
-73.855 -3.730 21.127 255 0 0
-73.192 -2.985 20.932 255 0 0
-73.395 -2.278 20.986 255 0 0
-71.912 -1.355 20.525 255 0 0
-71.890 -0.650 20.519 255 0 0
-76.313 -8.496 22.121 255 0 0
-76.582 -7.569 22.168 255 0 0
-75.309 -6.536 21.799 255 0 0
-75.379 -5.805 21.807 255 0 0
-74.042 -4.978 21.409 255 0 0
-74.168 -4.151 21.427 255 0 0
-72.927 -3.303 21.046 255 0 0
-73.023 -2.604 21.070 255 0 0
-72.093 -1.822 20.797 255 0 0
-71.978 -1.027 20.759 255 0 0
-71.693 -0.326 20.679 255 0 0
-76.232 -8.652 22.348 255 0 0
-76.382 -7.748 22.361 255 0 0
-75.064 -6.882 21.959 255 0 0
-75.367 -6.002 21.973 255 0 0
-73.965 -5.161 21.553 255 0 0
-74.216 -4.462 21.616 255 0 0
-72.875 -3.488 21.243 255 0 0
-73.116 -2.784 21.308 255 0 0
-74.478 -2.120 21.702 255 0 0
-72.090 -1.177 20.991 255 0 0
-74.969 -0.505 21.831 255 0 0
-76.455 -9.037 22.633 255 0 0
-76.479 -7.937 22.607 255 0 0
-75.962 -7.132 22.428 255 0 0
-75.304 -6.166 22.208 255 0 0
-74.053 -5.347 21.827 255 0 0
-74.319 -4.643 21.895 255 0 0
-73.586 -3.710 21.676 255 0 0
-73.169 -2.977 21.548 255 0 0
-72.935 -2.256 21.475 255 0 0
-71.925 -1.353 21.141 255 0 0
-71.873 -0.648 21.126 255 0 0
-76.242 -8.647 22.751 255 0 0
-75.449 -7.463 22.525 255 0 0
-75.147 -6.643 22.423 255 0 0
-75.152 -5.786 22.384 255 0 0
-74.052 -4.977 22.045 255 0 0
-74.360 -4.281 22.127 255 0 0
-72.944 -3.297 21.671 255 0 0
-73.024 -2.597 21.690 255 0 0
-72.196 -1.815 21.440 255 0 0
-71.968 -1.014 21.368 255 0 0
-71.677 -0.313 21.283 255 0 0
-75.327 -7.267 22.659 255 0 0
-75.431 -6.349 22.699 255 0 0
-74.597 -5.544 22.443 255 0 0
-74.314 -4.800 22.347 255 0 0
-74.259 -4.022 22.319 255 0 0
-73.192 -3.154 21.988 255 0 0
-73.136 -2.433 21.966 255 0 0
-71.671 -1.524 21.468 255 0 0
-71.963 -0.832 21.556 255 0 0
-76.332 -7.735 23.197 255 0 0
-75.061 -6.880 22.793 255 0 0
-74.452 -5.918 22.598 255 0 0
-73.953 -5.149 22.434 255 0 0
-74.189 -4.449 22.496 255 0 0
-72.878 -3.485 22.117 255 0 0
-73.116 -2.782 22.121 255 0 0
-73.284 -2.083 22.168 255 0 0
-72.082 -1.151 21.783 255 0 0
-72.336 -0.461 21.861 255 0 0
-76.066 -7.338 23.339 255 0 0
-75.428 -6.351 23.088 255 0 0
-74.198 -5.510 22.704 255 0 0
-74.314 -4.795 22.729 255 0 0
-73.478 -3.974 22.462 255 0 0
-73.199 -3.146 22.365 255 0 0
-73.078 -2.423 22.324 255 0 0
-71.702 -1.631 21.903 255 0 0
-71.971 -0.826 21.990 255 0 0
-76.456 -7.900 23.710 255 0 0
-75.940 -7.117 23.527 255 0 0
-75.338 -6.213 23.320 255 0 0
-74.439 -5.373 23.025 255 0 0
-74.310 -4.639 22.974 255 0 0
-73.000 -3.668 22.504 255 0 0
-73.140 -2.963 22.541 255 0 0
-72.809 -2.239 22.435 255 0 0
-71.929 -1.350 22.189 255 0 0
-72.341 -0.649 22.317 255 0 0
-76.447 -7.893 23.904 255 0 0
-75.627 -6.647 23.633 255 0 0
-75.052 -5.776 23.452 255 0 0
-74.558 -5.007 23.285 255 0 0
-73.555 -4.172 22.950 255 0 0
-72.957 -3.284 22.736 255 0 0
-72.305 -2.539 22.532 255 0 0
-72.085 -1.843 22.417 255 0 0
-71.907 -0.819 22.402 255 0 0
-75.893 -7.065 23.902 255 0 0
-75.336 -6.208 23.709 255 0 0
-74.800 -5.398 23.523 255 0 0
-74.309 -4.638 23.357 255 0 0
-73.760 -3.810 23.178 255 0 0
-73.119 -2.957 22.975 255 0 0
-72.063 -2.210 22.639 255 0 0
-71.917 -1.348 22.557 255 0 0
-71.290 -0.426 22.396 255 0 0
-75.805 -6.916 24.129 255 0 0
-75.174 -5.962 23.919 255 0 0
-74.683 -5.187 23.685 255 0 0
-74.186 -4.436 23.517 255 0 0
-73.593 -3.516 23.348 255 0 0
-73.116 -2.779 23.191 255 0 0
-72.020 -2.043 22.840 255 0 0
-71.984 -1.025 22.834 255 0 0
-70.796 -0.277 22.476 255 0 0
-75.946 -6.924 24.370 255 0 0
-75.179 -5.960 24.116 255 0 0
-74.679 -5.183 23.942 255 0 0
-74.186 -4.433 23.774 255 0 0
-73.590 -3.515 23.602 255 0 0
-73.122 -2.778 23.383 255 0 0
-72.638 -2.060 23.224 255 0 0
-72.020 -1.065 23.013 255 0 0
-70.794 -0.273 22.658 255 0 0
-75.440 -6.361 24.397 255 0 0
-74.976 -5.551 24.234 255 0 0
-74.427 -4.786 24.045 255 0 0
-73.930 -3.996 23.875 255 0 0
-73.393 -3.191 23.690 255 0 0
-72.864 -2.386 23.511 255 0 0
-72.399 -1.675 23.358 255 0 0
-71.374 -0.637 23.005 255 0 0
-76.076 -7.064 24.883 255 0 0
-75.250 -6.066 24.590 255 0 0
-75.375 -5.226 24.558 255 0 0
-74.180 -4.428 24.158 255 0 0
-73.588 -3.513 23.985 255 0 0
-73.118 -2.777 23.826 255 0 0
-72.644 -2.059 23.667 255 0 0
-71.992 -1.029 23.478 255 0 0
-71.483 -0.265 23.311 255 0 0
-76.079 -7.057 25.082 255 0 0
-75.212 -6.006 24.777 255 0 0
-74.392 -4.747 24.483 255 0 0
-74.043 -3.986 24.359 255 0 0
-73.387 -3.178 24.132 255 0 0
-72.856 -2.375 23.950 255 0 0
-72.396 -1.664 23.796 255 0 0
-71.729 -0.639 23.555 255 0 0
-75.638 -6.662 25.187 255 0 0
-75.195 -5.784 24.999 255 0 0
-74.286 -4.582 24.635 255 0 0
-73.850 -3.689 24.491 255 0 0
-73.113 -2.776 24.206 255 0 0
-72.646 -2.057 24.047 255 0 0
-71.988 -1.018 23.850 255 0 0
-71.485 -0.256 23.683 255 0 0
-75.894 -7.024 25.481 255 0 0
-75.346 -6.227 25.281 255 0 0
-74.952 -5.430 25.132 255 0 0
-74.281 -4.575 24.891 255 0 0
-73.839 -3.686 24.681 255 0 0
-73.113 -2.775 24.461 255 0 0
-73.454 -2.079 24.571 255 0 0
-71.977 -1.010 24.097 255 0 0
-71.520 -0.291 23.965 255 0 0
-75.775 -6.877 25.633 255 0 0
-75.049 -5.772 25.411 255 0 0
-74.552 -5.000 25.229 255 0 0
-74.075 -4.202 25.044 255 0 0
-73.376 -3.158 24.765 255 0 0
-72.891 -2.361 24.594 255 0 0
-72.477 -1.651 24.452 255 0 0
-71.727 -0.637 24.180 255 0 0
-75.219 -6.016 25.665 255 0 0
-74.669 -5.161 25.501 255 0 0
-74.174 -4.412 25.256 255 0 0
-73.752 -3.517 25.133 255 0 0
-73.112 -2.774 24.845 255 0 0
-74.380 -2.104 25.271 255 0 0
-72.024 -1.056 24.489 255 0 0
-75.890 -7.001 26.134 255 0 0
-74.938 -5.596 25.794 255 0 0
-74.392 -4.744 25.587 255 0 0
-73.894 -3.939 25.400 255 0 0
-73.364 -3.144 25.209 255 0 0
-72.917 -2.415 25.050 255 0 0
-72.478 -1.640 24.895 255 0 0
-71.773 -0.636 24.636 255 0 0
-74.943 -5.599 26.053 255 0 0
-74.387 -4.743 25.781 255 0 0
-73.892 -3.932 25.592 255 0 0
-73.362 -3.138 25.400 255 0 0
-72.899 -2.408 25.235 255 0 0
-72.480 -1.635 25.086 255 0 0
-71.777 -0.635 24.882 255 0 0
-75.191 -5.977 26.351 255 0 0
-74.654 -5.151 26.153 255 0 0
-74.163 -4.403 25.904 255 0 0
-73.637 -3.585 25.726 255 0 0
-73.115 -2.772 25.538 255 0 0
-72.595 -1.978 25.316 255 0 0
-72.001 -1.033 25.109 255 0 0
-75.057 -5.770 26.457 255 0 0
-74.560 -4.997 26.282 255 0 0
-74.017 -4.174 26.093 255 0 0
-73.483 -3.350 25.895 255 0 0
-73.014 -2.622 25.738 255 0 0
-72.464 -1.731 25.510 255 0 0
-71.863 -0.847 25.290 255 0 0
-75.203 -5.992 26.784 255 0 0
-74.657 -5.146 26.549 255 0 0
-74.167 -4.396 26.363 255 0 0
-73.638 -3.580 26.182 255 0 0
-73.115 -2.770 25.990 255 0 0
-72.592 -1.979 25.764 255 0 0
-72.003 -1.017 25.550 255 0 0
-74.945 -5.606 26.924 255 0 0
-74.407 -4.784 26.647 255 0 0
-73.871 -3.900 26.426 255 0 0
-73.398 -3.166 26.249 255 0 0
-72.874 -2.381 26.057 255 0 0
-72.354 -1.610 25.869 255 0 0
-71.718 -0.631 25.692 255 0 0
-74.944 -5.608 27.123 255 0 0
-74.406 -4.788 26.911 255 0 0
-73.864 -3.889 26.684 255 0 0
-73.390 -3.156 26.504 255 0 0
-72.866 -2.373 26.311 255 0 0
-72.222 -1.407 26.048 255 0 0
-71.509 -0.271 25.797 255 0 0
-74.953 -5.610 27.327 255 0 0
-74.410 -4.791 27.111 255 0 0
-73.855 -3.881 26.876 255 0 0
-73.384 -3.148 26.696 255 0 0
-72.858 -2.366 26.501 255 0 0
-72.238 -1.426 26.283 255 0 0
-71.556 -0.247 26.025 255 0 0
-74.847 -5.455 27.495 255 0 0
-74.280 -4.549 27.263 255 0 0
-73.792 -3.803 27.073 255 0 0
-73.256 -2.994 26.855 255 0 0
-72.727 -2.174 26.668 255 0 0
-71.974 -0.985 26.364 255 0 0
-75.329 -6.143 27.919 255 0 0
-74.414 -4.798 27.577 255 0 0
-73.803 -3.813 27.316 255 0 0
-73.238 -2.967 27.079 255 0 0
-72.722 -2.171 26.860 255 0 0
-71.967 -0.975 26.615 255 0 0
-74.685 -5.194 27.912 255 0 0
-74.153 -4.375 27.677 255 0 0
-73.493 -3.362 27.416 255 0 0
-73.026 -2.634 27.235 255 0 0
-72.380 -1.626 26.965 255 0 0
-71.773 -0.710 26.753 255 0 0
-74.150 -4.371 27.941 255 0 0
-73.493 -3.364 27.614 255 0 0
-73.025 -2.635 27.431 255 0 0
-72.379 -1.619 27.158 255 0 0
-71.746 -0.667 26.926 255 0 0
-73.492 -3.366 27.878 255 0 0
-73.036 -2.637 27.698 255 0 0
-72.370 -1.610 27.413 255 0 0
-71.757 -0.685 27.160 255 0 0
-74.197 -3.129 28.374 255 0 0
-72.878 -2.368 27.864 255 0 0
-72.233 -1.411 27.572 255 0 0
-72.841 -2.359 28.045 255 0 0
-72.199 -1.371 27.745 255 0 0
-75.023 -3.145 29.160 255 0 0
-73.200 -1.606 28.383 255 0 0
-71.498 -0.229 27.717 255 0 0
-74.284 -2.030 29.023 255 0 0
-71.752 -0.676 27.998 255 0 0
-74.436 -2.265 29.282 255 0 0
-74.663 -0.892 29.376 255 0 0
-74.278 -2.030 29.492 255 0 0
-74.034 -1.603 29.615 255 0 0
-74.496 -2.357 30.023 255 0 0
-74.603 -0.910 30.061 255 0 0
-74.188 -2.218 30.099 255 0 0
-74.249 -0.877 30.104 255 0 0
59.713 -1.525 -3.166 0 0 255
67.275 -1.836 -3.118 0 0 255
67.196 -1.330 -3.085 0 0 255
79.474 -5.195 8.800 0 0 255
-79.802 -13.003 9.120 255 0 0
-79.598 -13.770 9.548 255 0 0
-79.587 -13.773 9.737 255 0 0
-74.523 -4.959 10.579 255 0 0
-74.318 -4.684 10.704 255 0 0
-67.640 24.885 10.606 255 0 0
-74.328 -4.689 10.943 255 0 0
-74.326 -4.692 11.121 255 0 0
-74.029 -4.203 11.331 255 0 0
-74.223 -4.425 11.553 255 0 0
-67.591 24.494 11.437 255 0 0
-74.227 -4.430 11.731 255 0 0
-67.250 -3.163 10.637 255 0 0
-71.011 23.412 12.003 255 0 0
-76.614 -8.310 12.381 255 0 0
-74.227 -4.434 11.908 255 0 0
-74.479 -3.523 12.001 255 0 0
-67.545 24.484 11.717 255 0 0
-76.503 -8.057 12.574 255 0 0
-73.925 -5.146 12.158 255 0 0
-74.293 -4.220 12.134 255 0 0
-74.672 -3.507 12.184 255 0 0
-73.082 -2.514 11.923 255 0 0
-67.603 24.896 11.930 255 0 0
-77.331 -10.419 12.925 255 0 0
-76.268 -8.778 12.726 255 0 0
-76.386 -7.825 12.737 255 0 0
-74.145 -4.938 12.325 255 0 0
-74.217 -3.991 12.349 255 0 0
-73.116 -3.222 12.164 255 0 0
-73.202 -2.322 12.162 255 0 0
-75.568 -1.645 12.550 255 0 0
-71.976 -0.866 11.955 255 0 0
-67.514 24.936 12.092 255 0 0
-77.337 -10.428 13.174 255 0 0
-77.348 -9.155 13.129 255 0 0
-76.513 -8.071 13.002 255 0 0
-74.123 -4.948 12.535 255 0 0
-74.223 -3.995 12.529 255 0 0
-73.109 -3.225 12.339 255 0 0
-73.187 -2.324 12.336 255 0 0
-71.676 -1.544 12.072 255 0 0
-71.986 -0.853 12.125 255 0 0
-78.809 -11.663 13.668 255 0 0
-77.726 -9.976 13.392 255 0 0
-76.275 -8.792 13.154 255 0 0
-76.395 -7.837 13.231 255 0 0
-74.135 -4.940 12.703 255 0 0
-74.221 -4.000 12.767 255 0 0
-73.100 -3.229 12.572 255 0 0
-73.166 -2.325 12.510 255 0 0
-71.655 -1.556 12.272 255 0 0
-71.971 -0.864 12.327 255 0 0
-78.792 -11.666 13.856 255 0 0
-77.720 -9.982 13.642 255 0 0
-76.276 -8.798 13.337 255 0 0
-76.382 -7.838 13.352 255 0 0
-67.906 -5.196 11.836 255 0 0
-74.352 -4.731 12.972 255 0 0
-73.856 -3.746 12.889 255 0 0
-73.074 -2.760 12.724 255 0 0
-73.823 -2.071 12.854 255 0 0
-72.008 -1.316 12.548 255 0 0
-76.722 -0.441 13.338 255 0 0
-78.793 -11.673 14.111 255 0 0
-77.722 -9.989 13.893 255 0 0
-76.284 -8.807 13.582 255 0 0
-76.382 -7.842 13.537 255 0 0
-75.691 -5.800 13.497 255 0 0
-74.351 -4.735 13.151 255 0 0
-73.909 -3.759 13.110 255 0 0
-73.082 -2.768 12.938 255 0 0
-72.766 -2.050 12.881 255 0 0
-71.989 -1.321 12.716 255 0 0
-76.679 -0.435 13.497 255 0 0
-78.452 -12.152 14.274 255 0 0
-77.566 -10.740 14.066 255 0 0
-77.585 -9.477 14.022 255 0 0
-76.564 -8.342 13.787 255 0 0
-76.677 -7.360 13.817 255 0 0
-75.351 -6.263 13.582 255 0 0
-73.943 -5.177 13.286 255 0 0
-74.465 -4.265 13.389 255 0 0
-73.078 -3.240 13.156 255 0 0
-72.945 -2.324 13.062 255 0 0
-71.643 -1.566 12.846 255 0 0
-71.960 -0.874 12.904 255 0 0
-78.459 -12.159 14.465 255 0 0
-77.359 -10.468 14.232 255 0 0
-76.852 -9.126 14.097 255 0 0
-76.531 -8.105 13.984 255 0 0
-75.112 -6.986 13.729 255 0 0
-75.406 -6.013 13.797 255 0 0
-74.099 -4.964 13.506 255 0 0
-74.211 -4.015 13.542 255 0 0
-73.182 -3.019 13.358 255 0 0
-73.440 -2.292 13.420 255 0 0
-71.971 -1.339 13.109 255 0 0
-71.697 -0.421 13.069 255 0 0
-78.300 -11.374 14.609 255 0 0
-76.839 -9.648 14.309 255 0 0
-76.219 -8.578 14.197 255 0 0
-76.150 -7.564 14.133 255 0 0
-75.362 -6.518 13.991 255 0 0
-75.501 -5.556 13.969 255 0 0
-74.196 -4.480 13.744 255 0 0
-72.838 -3.473 13.503 255 0 0
-73.056 -2.545 13.504 255 0 0
-71.742 -1.799 13.260 255 0 0
-71.953 -0.876 13.275 255 0 0
-78.689 -11.440 14.936 255 0 0
-77.595 -9.754 14.762 255 0 0
-76.314 -8.838 14.383 255 0 0
-75.628 -7.785 14.261 255 0 0
-75.032 -6.726 14.098 255 0 0
-75.010 -5.766 14.100 255 0 0
-74.361 -4.755 13.993 255 0 0
-73.410 -3.738 13.783 255 0 0
-73.094 -2.785 13.725 255 0 0
-73.260 -2.080 13.755 255 0 0
-72.023 -1.119 13.509 255 0 0
-78.149 -10.597 15.007 255 0 0
-77.238 -9.191 14.793 255 0 0
-76.544 -8.131 14.662 255 0 0
-75.123 -7.001 14.339 255 0 0
-74.457 -5.955 14.223 255 0 0
-74.069 -4.977 14.097 255 0 0
-73.879 -4.011 14.078 255 0 0
-73.216 -3.031 13.956 255 0 0
-73.339 -2.305 13.991 255 0 0
-71.949 -1.353 13.683 255 0 0
-72.209 -0.430 13.748 255 0 0
-78.704 -11.456 15.320 255 0 0
-77.613 -9.768 15.078 255 0 0
-76.909 -8.671 14.951 255 0 0
-76.207 -7.590 14.820 255 0 0
-75.436 -6.546 14.613 255 0 0
-74.296 -5.722 14.386 255 0 0
-74.363 -4.763 14.355 255 0 0
-73.013 -3.733 14.133 255 0 0
-73.097 -2.796 14.138 255 0 0
-72.749 -2.076 14.069 255 0 0
-72.026 -1.125 13.891 255 0 0
-77.801 -10.041 15.355 255 0 0
-77.082 -8.952 15.210 255 0 0
-76.394 -7.879 15.026 255 0 0
-75.704 -6.804 14.835 255 0 0
-74.830 -5.995 14.656 255 0 0
-74.081 -4.989 14.518 255 0 0
-73.170 -3.982 14.358 255 0 0
-73.236 -3.039 14.316 255 0 0
-71.919 -2.056 14.083 255 0 0
-72.031 -1.127 14.094 255 0 0
-78.409 -10.902 15.682 255 0 0
-77.447 -9.497 15.510 255 0 0
-76.731 -8.404 15.306 255 0 0
-76.038 -7.350 15.166 255 0 0
-75.538 -6.550 14.942 255 0 0
-74.870 -5.534 14.884 255 0 0
-74.215 -4.511 14.764 255 0 0
-73.329 -3.755 14.574 255 0 0
-73.105 -2.805 14.493 255 0 0
-71.763 -1.822 14.251 255 0 0
-71.166 -0.891 14.141 255 0 0
-77.619 -9.792 15.706 255 0 0
-76.938 -8.689 15.583 255 0 0
-76.221 -7.611 15.440 255 0 0
-75.543 -6.567 15.246 255 0 0
-74.878 -5.539 15.068 255 0 0
-74.215 -4.516 14.944 255 0 0
-73.734 -3.781 14.872 255 0 0
-73.111 -2.812 14.731 255 0 0
-71.767 -1.826 14.426 255 0 0
-72.029 -1.129 14.493 255 0 0
-78.726 -11.493 16.217 255 0 0
-77.196 -8.989 15.856 255 0 0
-76.391 -7.894 15.648 255 0 0
-75.718 -6.826 15.513 255 0 0
-75.045 -5.807 15.359 255 0 0
-74.383 -4.785 15.204 255 0 0
-73.732 -3.783 15.037 255 0 0
-73.106 -2.816 14.907 255 0 0
-72.480 -1.850 14.804 255 0 0
-72.029 -1.125 14.706 255 0 0
-70.758 -0.209 14.471 255 0 0
-77.747 -10.060 16.168 255 0 0
-77.150 -8.470 16.016 255 0 0
-76.509 -7.419 15.877 255 0 0
-75.380 -6.317 15.668 255 0 0
-74.712 -5.291 15.473 255 0 0
-74.065 -4.291 15.312 255 0 0
-73.414 -3.300 15.177 255 0 0
-72.791 -2.332 15.055 255 0 0
-72.335 -1.620 14.960 255 0 0
-71.877 -0.912 14.866 255 0 0
-77.399 -10.554 16.367 255 0 0
-77.616 -9.540 16.369 255 0 0
-76.580 -8.188 16.089 255 0 0
-76.029 -7.121 15.998 255 0 0
-75.324 -6.069 15.852 255 0 0
-74.865 -5.308 15.687 255 0 0
-74.094 -4.302 15.536 255 0 0
-73.427 -3.305 15.359 255 0 0
-72.800 -2.336 15.234 255 0 0
-72.337 -1.624 15.137 255 0 0
-71.881 -0.916 15.042 255 0 0
-77.397 -10.561 16.555 255 0 0
-76.745 -8.961 16.385 255 0 0
-76.409 -7.912 16.277 255 0 0
-76.244 -6.894 16.240 255 0 0
-75.364 -5.851 16.035 255 0 0
-74.235 -4.543 15.790 255 0 0
-73.700 -3.575 15.664 255 0 0
-72.963 -2.589 15.498 255 0 0
-72.489 -1.864 15.396 255 0 0
-72.033 -1.128 15.297 255 0 0
-77.610 -10.063 16.773 255 0 0
-76.443 -8.412 16.492 255 0 0
-76.527 -7.445 16.500 255 0 0
-75.397 -6.334 16.287 255 0 0
-75.102 -5.338 16.164 255 0 0
-74.403 -4.083 15.992 255 0 0
-73.270 -3.070 15.753 255 0 0
-72.712 -2.118 15.651 255 0 0
-72.197 -1.400 15.505 255 0 0
-71.734 -0.700 15.383 255 0 0
-78.764 -11.543 17.315 255 0 0
-77.613 -9.557 17.006 255 0 0
-76.420 -7.925 16.718 255 0 0
-75.000 -6.795 16.403 255 0 0
-75.441 -5.862 16.445 255 0 0
-74.235 -4.557 16.213 255 0 0
-74.051 -3.591 16.149 255 0 0
-73.118 -2.845 15.918 255 0 0
-72.645 -1.877 15.785 255 0 0
-72.036 -1.130 15.712 255 0 0
-78.760 -11.548 17.443 255 0 0
-77.602 -9.561 17.195 255 0 0
-76.419 -7.930 16.906 255 0 0
-75.010 -6.802 16.589 255 0 0
-75.491 -5.873 16.702 255 0 0
-73.980 -5.034 16.300 255 0 0
-74.378 -4.092 16.412 255 0 0
-73.288 -3.091 16.176 255 0 0
-72.978 -2.358 16.046 255 0 0
-75.463 -1.492 16.646 255 0 0
-71.877 -0.722 15.856 255 0 0
-77.627 -9.571 17.457 255 0 0
-76.418 -8.431 17.112 255 0 0
-76.458 -7.466 17.168 255 0 0
-75.408 -6.352 16.908 255 0 0
-74.012 -5.281 16.532 255 0 0
-74.244 -4.570 16.578 255 0 0
-72.896 -3.544 16.255 255 0 0
-73.108 -2.848 16.299 255 0 0
-72.670 -1.888 16.206 255 0 0
-71.998 -1.072 16.081 255 0 0
-76.600 -0.259 17.032 255 0 0
-77.679 -9.879 17.675 255 0 0
-76.192 -8.654 17.308 255 0 0
-76.410 -7.692 17.348 255 0 0
-75.252 -6.588 17.055 255 0 0
-75.268 -5.616 17.053 255 0 0
-74.325 -4.824 16.833 255 0 0
-74.362 -4.100 16.713 255 0 0
-73.257 -3.104 16.587 255 0 0
-73.026 -2.372 16.514 255 0 0
-72.753 -1.441 16.430 255 0 0
-71.895 -0.725 16.237 255 0 0
-77.553 -10.095 17.907 255 0 0
-77.794 -9.136 17.876 255 0 0
-76.425 -7.948 17.536 255 0 0
-75.018 -6.824 17.205 255 0 0
-75.307 -5.878 17.278 255 0 0
-73.982 -5.034 16.987 255 0 0
-74.347 -4.107 17.015 255 0 0
-73.257 -3.110 16.767 255 0 0
-73.020 -2.372 16.674 255 0 0
-71.804 -1.439 16.423 255 0 0
-71.902 -0.731 16.415 255 0 0
-77.689 -9.900 18.122 255 0 0
-76.199 -8.667 17.750 255 0 0
-76.430 -7.956 17.790 255 0 0
-75.024 -6.831 17.391 255 0 0
-75.497 -5.911 17.541 255 0 0
-73.978 -5.037 17.169 255 0 0
-74.194 -4.105 17.224 255 0 0
-73.258 -3.104 16.970 255 0 0
-73.030 -2.379 16.896 255 0 0
-71.826 -1.424 16.599 255 0 0
-71.881 -0.706 16.608 255 0 0
-77.489 -10.650 18.348 255 0 0
-77.449 -9.333 18.249 255 0 0
-76.628 -8.273 18.032 255 0 0
-76.360 -7.202 17.950 255 0 0
-75.291 -6.129 17.689 255 0 0
-73.908 -5.087 17.349 255 0 0
-74.254 -4.355 17.415 255 0 0
-72.934 -3.331 17.107 255 0 0
-72.998 -2.630 17.059 255 0 0
-71.669 -1.655 16.794 255 0 0
-71.947 -0.830 16.818 255 0 0
-77.522 -10.114 18.540 255 0 0
-76.833 -9.051 18.284 255 0 0
-76.444 -7.968 18.172 255 0 0
-75.032 -6.848 17.824 255 0 0
-75.496 -5.953 17.977 255 0 0
-73.906 -5.095 17.530 255 0 0
-74.250 -4.384 17.601 255 0 0
-72.921 -3.336 17.284 255 0 0
-73.001 -2.637 17.300 255 0 0
-71.666 -1.645 16.955 255 0 0
-71.943 -0.863 17.026 255 0 0
-77.707 -9.931 18.764 255 0 0
-76.418 -9.013 18.436 255 0 0
-76.450 -7.976 18.427 255 0 0
-75.032 -6.855 18.009 255 0 0
-75.438 -5.957 18.148 255 0 0
-73.899 -5.105 17.769 255 0 0
-74.256 -4.380 17.814 255 0 0
-72.908 -3.592 17.485 255 0 0
-73.115 -2.856 17.498 255 0 0
-71.671 -1.657 17.170 255 0 0
-71.930 -0.893 17.234 255 0 0
-78.260 -10.785 19.175 255 0 0
-76.606 -9.255 18.683 255 0 0
-76.627 -8.304 18.722 255 0 0
-75.207 -7.111 18.301 255 0 0
-75.278 -6.151 18.305 255 0 0
-74.033 -5.333 17.994 255 0 0
-74.260 -4.373 18.029 255 0 0
-72.895 -3.558 17.691 255 0 0
-73.114 -2.861 17.740 255 0 0
-73.308 -1.942 17.734 255 0 0
-71.968 -1.046 17.455 255 0 0
-71.597 -0.300 17.323 255 0 0
-76.807 -9.521 18.992 255 0 0
-76.763 -8.533 18.959 255 0 0
-75.388 -7.432 18.529 255 0 0
-75.177 -6.639 18.496 255 0 0
-74.356 -5.798 18.314 255 0 0
-74.263 -4.860 18.227 255 0 0
-74.230 -3.913 18.211 255 0 0
-73.244 -3.121 17.975 255 0 0
-73.271 -2.412 17.979 255 0 0
-71.739 -1.479 17.582 255 0 0
-72.362 -0.731 17.736 255 0 0
-76.791 -9.525 19.180 255 0 0
-76.782 -8.542 19.155 255 0 0
-75.434 -7.448 18.789 255 0 0
-75.434 -6.409 18.783 255 0 0
-74.214 -5.584 18.469 255 0 0
-74.298 -4.638 18.418 255 0 0
-73.287 -3.741 18.196 255 0 0
-73.033 -2.957 18.142 255 0 0
-73.353 -2.212 18.190 255 0 0
-71.810 -1.426 17.778 255 0 0
-72.377 -0.735 17.919 255 0 0
-78.286 -10.816 19.763 255 0 0
-76.641 -9.287 19.391 255 0 0
-76.808 -8.552 19.352 255 0 0
-75.470 -7.463 19.046 255 0 0
-75.442 -6.416 18.973 255 0 0
-74.223 -5.590 18.656 255 0 0
-74.298 -4.647 18.663 255 0 0
-73.016 -3.753 18.347 255 0 0
-73.037 -2.965 18.322 255 0 0
-72.771 -2.187 18.257 255 0 0
-71.802 -1.431 18.015 255 0 0
-72.297 -0.740 18.140 255 0 0
-76.479 -9.071 19.522 255 0 0
-76.477 -8.009 19.451 255 0 0
-75.321 -6.924 19.199 255 0 0
-75.150 -5.979 19.065 255 0 0
-74.443 -5.145 18.911 255 0 0
-73.249 -4.099 18.579 255 0 0
-72.858 -3.368 18.475 255 0 0
-73.008 -2.672 18.509 255 0 0
-71.704 -1.718 18.174 255 0 0
-71.922 -0.980 18.207 255 0 0
-71.888 -0.284 18.200 255 0 0
-76.476 -9.079 19.710 255 0 0
-76.483 -8.018 19.708 255 0 0
-75.455 -6.943 19.421 255 0 0
-75.309 -6.194 19.372 255 0 0
-74.804 -5.429 19.232 255 0 0
-74.152 -4.433 19.043 255 0 0
-73.032 -3.587 18.757 255 0 0
-73.080 -2.879 18.643 255 0 0
-71.845 -1.935 18.451 255 0 0
-72.061 -1.197 18.487 255 0 0
-71.281 -0.495 18.288 255 0 0
-77.765 -10.011 20.320 255 0 0
-76.334 -8.747 19.941 255 0 0
-76.355 -7.782 19.857 255 0 0
-75.671 -6.781 19.708 255 0 0
-75.163 -6.003 19.564 255 0 0
-74.637 -5.175 19.394 255 0 0
-73.455 -4.123 19.059 255 0 0
-73.166 -3.396 18.978 255 0 0
-72.504 -2.412 18.814 255 0 0
-71.651 -1.602 18.553 255 0 0
-71.131 -0.848 18.425 255 0 0
-77.168 -8.628 20.342 255 0 0
-76.530 -7.607 20.135 255 0 0
-75.828 -6.679 19.955 255 0 0
-75.153 -5.888 19.766 255 0 0
-74.470 -4.912 19.516 255 0 0
-73.561 -4.135 19.270 255 0 0
-73.177 -3.402 19.164 255 0 0
-72.867 -2.429 19.090 255 0 0
-71.980 -1.615 18.817 255 0 0
-71.138 -0.856 18.602 255 0 0
-77.307 -8.871 20.585 255 0 0
-76.373 -7.802 20.307 255 0 0
-75.986 -6.828 20.167 255 0 0
-75.304 -6.033 19.974 255 0 0
-74.712 -5.212 19.814 255 0 0
-74.135 -4.374 19.667 255 0 0
-73.647 -3.632 19.531 255 0 0
-73.039 -2.699 19.368 255 0 0
-72.431 -1.765 19.137 255 0 0
-71.941 -1.013 19.026 255 0 0
-71.004 -0.312 18.780 255 0 0
-77.523 -10.111 20.947 255 0 0
-76.259 -8.541 20.485 255 0 0
-76.364 -7.809 20.496 255 0 0
-75.996 -6.841 20.422 255 0 0
-75.305 -6.045 20.224 255 0 0
-74.946 -5.219 20.098 255 0 0
-74.202 -4.383 19.871 255 0 0
-73.657 -3.637 19.719 255 0 0
-73.036 -2.705 19.550 255 0 0
-72.433 -1.775 19.378 255 0 0
-71.952 -1.035 19.242 255 0 0
-71.509 -0.336 19.125 255 0 0
-77.371 -10.199 21.147 255 0 0
-76.221 -8.547 20.730 255 0 0
-76.489 -7.635 20.759 255 0 0
-75.296 -6.647 20.448 255 0 0
-75.415 -5.923 20.469 255 0 0
-74.775 -4.952 20.221 255 0 0
-74.264 -4.192 20.013 255 0 0
-73.681 -3.445 19.912 255 0 0
-72.953 -2.496 19.823 255 0 0
-72.440 -1.785 19.621 255 0 0
-71.941 -1.007 19.413 255 0 0
-71.493 -0.308 19.294 255 0 0
-76.265 -8.773 20.949 255 0 0
-76.420 -7.737 20.977 255 0 0
-75.000 -6.770 20.528 255 0 0
-75.307 -6.064 20.599 255 0 0
-74.969 -5.255 20.506 255 0 0
-74.228 -4.394 20.316 255 0 0
-73.814 -3.459 20.195 255 0 0
-73.061 -2.505 19.974 255 0 0
-72.486 -1.793 19.815 255 0 0
-71.951 -1.030 19.630 255 0 0
-71.497 -0.312 19.495 255 0 0
-77.359 -10.213 21.534 255 0 0
-76.198 -8.563 21.171 255 0 0
-76.424 -7.713 21.154 255 0 0
-75.173 -6.646 20.796 255 0 0
-75.406 -5.931 20.848 255 0 0
-74.151 -4.924 20.489 255 0 0
-74.353 -4.213 20.536 255 0 0
-73.830 -3.466 20.385 255 0 0
-73.052 -2.512 20.154 255 0 0
-72.561 -1.803 20.017 255 0 0
-71.972 -1.055 19.849 255 0 0
-71.477 -0.280 19.705 255 0 0
-77.352 -10.218 21.663 255 0 0
-76.191 -8.570 21.361 255 0 0
-76.404 -7.662 21.436 255 0 0
-75.160 -6.651 21.046 255 0 0
-75.369 -5.871 21.091 255 0 0
-74.149 -4.931 20.675 255 0 0
-74.337 -4.218 20.719 255 0 0
-73.838 -3.473 20.574 255 0 0
-73.041 -2.522 20.395 255 0 0
-72.562 -1.813 20.260 255 0 0
-71.961 -1.043 20.055 255 0 0
-74.111 -0.293 20.618 255 0 0
-77.583 -10.076 22.020 255 0 0
-76.421 -8.429 21.650 255 0 0
-76.155 -7.295 21.528 255 0 0
-75.406 -6.489 21.302 255 0 0
-75.146 -5.532 21.200 255 0 0
-74.354 -4.743 20.967 255 0 0
-74.211 -4.020 20.918 255 0 0
-73.205 -3.133 20.613 255 0 0
-73.033 -2.391 20.557 255 0 0
-73.836 -1.703 20.781 255 0 0
-71.938 -0.860 20.229 255 0 0
-76.286 -8.805 21.859 255 0 0
-76.380 -7.867 21.847 255 0 0
-74.992 -6.815 21.401 255 0 0
-75.295 -6.023 21.464 255 0 0
-73.926 -5.121 21.054 255 0 0
-74.221 -4.413 21.129 255 0 0
-72.933 -3.631 20.755 255 0 0
-73.071 -2.747 20.786 255 0 0
-74.566 -2.073 21.208 255 0 0
-72.045 -1.209 20.515 255 0 0
-76.757 -0.461 21.814 255 0 0
-77.505 -9.329 22.432 255 0 0
-76.387 -7.877 22.042 255 0 0
-75.007 -6.829 21.657 255 0 0
-75.340 -6.037 21.731 255 0 0
-73.924 -5.127 21.304 255 0 0
-74.217 -4.419 21.379 255 0 0
-72.886 -3.542 20.956 255 0 0
-73.070 -2.753 20.971 255 0 0
-74.555 -2.079 21.394 255 0 0
-72.018 -1.264 20.678 255 0 0
-76.626 -0.472 21.936 255 0 0
-77.538 -10.105 22.660 255 0 0
-76.244 -8.558 22.265 255 0 0
-76.472 -7.347 22.266 255 0 0
-75.384 -6.510 21.934 255 0 0
-75.304 -5.574 21.941 255 0 0
-74.341 -4.769 21.588 255 0 0
-73.990 -3.936 21.475 255 0 0
-73.236 -3.125 21.235 255 0 0
-73.054 -2.412 21.178 255 0 0
-71.670 -1.673 20.775 255 0 0
-71.989 -0.801 20.843 255 0 0
-76.693 -9.431 22.624 255 0 0
-76.547 -8.119 22.565 255 0 0
-75.123 -7.028 22.106 255 0 0
-75.304 -6.199 22.120 255 0 0
-74.012 -5.306 21.717 255 0 0
-74.269 -4.613 21.782 255 0 0
-73.477 -3.763 21.538 255 0 0
-73.058 -2.941 21.405 255 0 0
-73.270 -2.244 21.463 255 0 0
-71.793 -1.442 21.028 255 0 0
-74.818 -0.660 21.911 255 0 0
-76.701 -9.441 22.822 255 0 0
-76.543 -8.126 22.760 255 0 0
-75.167 -7.041 22.310 255 0 0
-75.336 -6.241 22.358 255 0 0
-74.019 -5.320 21.967 255 0 0
-74.276 -4.626 22.033 255 0 0
-72.949 -3.654 21.627 255 0 0
-73.063 -2.947 21.655 255 0 0
-73.177 -2.247 21.685 255 0 0
-71.838 -1.421 21.254 255 0 0
-73.123 -0.651 21.601 255 0 0
-76.570 -8.518 23.045 255 0 0
-75.289 -7.256 22.562 255 0 0
-75.363 -6.467 22.603 255 0 0
-74.962 -5.576 22.476 255 0 0
-74.319 -4.798 22.272 255 0 0
-74.307 -3.983 22.228 255 0 0
-73.207 -3.146 21.872 255 0 0
-73.186 -2.441 21.862 255 0 0
-71.688 -1.695 21.412 255 0 0
-71.965 -0.816 21.447 255 0 0
-76.939 -8.732 23.330 255 0 0
-75.539 -7.664 22.844 255 0 0
-75.213 -6.612 22.754 255 0 0
-74.321 -5.721 22.497 255 0 0
-74.061 -4.986 22.407 255 0 0
-74.174 -4.268 22.432 255 0 0
-72.943 -3.305 21.968 255 0 0
-72.986 -2.589 21.976 255 0 0
-71.713 -1.766 21.626 255 0 0
-71.932 -1.010 21.702 255 0 0
-71.925 -0.313 21.673 255 0 0
-76.958 -8.744 23.533 255 0 0
-76.303 -7.756 23.333 255 0 0
-75.428 -6.667 23.047 255 0 0
-74.300 -5.727 22.681 255 0 0
-74.052 -4.992 22.594 255 0 0
-73.971 -4.174 22.579 255 0 0
-72.922 -3.315 22.209 255 0 0
-72.981 -2.600 22.222 255 0 0
-71.995 -1.783 21.930 255 0 0
-71.937 -1.020 21.919 255 0 0
-72.158 -0.321 21.954 255 0 0
-76.446 -7.954 23.617 255 0 0
-75.578 -6.629 23.283 255 0 0
-74.641 -5.760 22.977 255 0 0
-74.033 -4.998 22.778 255 0 0
-73.272 -4.142 22.553 255 0 0
-72.906 -3.326 22.451 255 0 0
-72.974 -2.612 22.467 255 0 0
-72.063 -1.763 22.134 255 0 0
-71.941 -1.022 22.099 255 0 0
-72.104 -0.324 22.151 255 0 0
-76.059 -7.364 23.705 255 0 0
-75.302 -6.216 23.441 255 0 0
-74.424 -5.405 23.092 255 0 0
-74.309 -4.680 22.983 255 0 0
-72.976 -3.681 22.634 255 0 0
-73.133 -2.976 22.676 255 0 0
-72.494 -2.252 22.474 255 0 0
-71.902 -1.373 22.279 255 0 0
-72.339 -0.680 22.415 255 0 0
-76.450 -7.973 24.011 255 0 0
-75.661 -6.764 23.839 255 0 0
-75.175 -5.985 23.606 255 0 0
-74.681 -5.229 23.438 255 0 0
-73.583 -4.090 23.043 255 0 0
-72.869 -3.341 22.812 255 0 0
-72.918 -2.627 22.822 255 0 0
-71.712 -1.740 22.459 255 0 0
-71.950 -1.046 22.533 255 0 0
-71.805 -0.341 22.458 255 0 0
-76.332 -7.811 24.250 255 0 0
-75.559 -6.595 23.922 255 0 0
-75.063 -5.816 23.750 255 0 0
-74.560 -5.057 23.579 255 0 0
-73.831 -3.939 23.357 255 0 0
-73.352 -3.189 23.168 255 0 0
-72.168 -2.430 22.790 255 0 0
-71.648 -1.538 22.641 255 0 0
-71.139 -0.840 22.480 255 0 0
-76.350 -7.825 24.451 255 0 0
-75.556 -6.605 24.181 255 0 0
-75.066 -5.826 24.010 255 0 0
-74.570 -5.068 23.839 255 0 0
-73.828 -3.935 23.579 255 0 0
-73.357 -3.205 23.390 255 0 0
-72.879 -2.459 23.266 255 0 0
-71.644 -1.543 22.825 255 0 0
-71.136 -0.845 22.663 255 0 0
-76.037 -7.069 24.527 255 0 0
-75.330 -6.266 24.283 255 0 0
-74.832 -5.487 24.109 255 0 0
-74.199 -4.485 23.917 255 0 0
-73.711 -3.742 23.751 255 0 0
-73.193 -3.002 23.577 255 0 0
-72.731 -2.228 23.420 255 0 0
-72.188 -1.409 23.172 255 0 0
-71.040 -0.696 22.804 255 0 0
-75.676 -6.786 24.629 255 0 0
-75.179 -6.009 24.452 255 0 0
-74.772 -5.258 24.307 255 0 0
-74.086 -4.323 24.057 255 0 0
-73.602 -3.583 23.891 255 0 0
-73.100 -2.851 23.722 255 0 0
-72.553 -1.960 23.572 255 0 0
-72.083 -1.214 23.402 255 0 0
-71.592 -0.489 23.237 255 0 0
-75.678 -6.792 24.828 255 0 0
-75.193 -6.016 24.653 255 0 0
-74.353 -4.763 24.387 255 0 0
-73.874 -3.957 24.231 255 0 0
-73.364 -3.217 24.056 255 0 0
-72.851 -2.412 23.894 255 0 0
-72.307 -1.573 23.660 255 0 0
-71.850 -0.871 23.511 255 0 0
-76.091 -7.253 25.254 255 0 0
-75.478 -6.461 25.033 255 0 0
-75.211 -5.703 24.865 255 0 0
-74.214 -4.503 24.565 255 0 0
-73.830 -3.765 24.429 255 0 0
-73.232 -3.021 24.224 255 0 0
-72.675 -2.141 24.019 255 0 0
-72.213 -1.435 23.865 255 0 0
-71.755 -0.729 23.713 255 0 0
-76.389 -7.896 25.577 255 0 0
-75.703 -6.807 25.297 255 0 0
-75.204 -6.030 25.115 255 0 0
-74.483 -4.930 24.868 255 0 0
-74.037 -4.189 24.709 255 0 0
-73.357 -3.194 24.443 255 0 0
-72.868 -2.420 24.280 255 0 0
-72.320 -1.586 24.104 255 0 0
-71.860 -0.883 23.951 255 0 0
-76.401 -7.914 25.844 255 0 0
-75.594 -6.658 25.504 255 0 0
-75.073 -5.825 25.342 255 0 0
-74.384 -4.803 25.035 255 0 0
-74.055 -4.067 24.914 255 0 0
-73.156 -2.958 24.604 255 0 0
-74.096 -2.200 24.938 255 0 0
-72.225 -1.452 24.306 255 0 0
-71.732 -0.693 24.129 255 0 0
-75.892 -7.139 25.849 255 0 0
-75.212 -6.044 25.577 255 0 0
-74.497 -4.954 25.324 255 0 0
-74.028 -4.207 25.090 255 0 0
-73.361 -3.203 24.893 255 0 0
-72.912 -2.377 24.744 255 0 0
-72.425 -1.600 24.581 255 0 0
-71.868 -0.896 24.391 255 0 0
-76.416 -7.940 26.246 255 0 0
-75.448 -6.437 25.874 255 0 0
-74.651 -5.187 25.554 255 0 0
-74.112 -4.374 25.351 255 0 0
-73.714 -3.589 25.235 255 0 0
-73.065 -2.737 25.002 255 0 0
-72.686 -2.024 24.868 255 0 0
-72.078 -1.226 24.654 255 0 0
-72.107 -0.485 24.663 255 0 0
-75.614 -6.686 26.164 255 0 0
-74.905 -5.603 25.933 255 0 0
-74.413 -4.848 25.749 255 0 0
-73.849 -3.948 25.520 255 0 0
-73.369 -3.211 25.346 255 0 0
-72.901 -2.334 25.127 255 0 0
-72.437 -1.611 24.965 255 0 0
-71.830 -0.839 24.776 255 0 0
-76.429 -7.971 26.714 255 0 0
-75.473 -6.466 26.342 255 0 0
-74.728 -5.306 26.054 255 0 0
-74.240 -4.542 25.872 255 0 0
-73.751 -3.797 25.677 255 0 0
-73.195 -3.010 25.483 255 0 0
-72.710 -2.192 25.295 255 0 0
-72.194 -1.411 25.118 255 0 0
-71.771 -0.627 24.927 255 0 0
-75.474 -6.477 26.539 255 0 0
-74.736 -5.312 26.254 255 0 0
-74.248 -4.549 26.071 255 0 0
-73.753 -3.805 25.937 255 0 0
-73.114 -2.970 25.640 255 0 0
-72.711 -2.199 25.486 255 0 0
-72.199 -1.419 25.308 255 0 0
-71.757 -0.639 25.172 255 0 0
-75.176 -5.983 26.672 255 0 0
-74.636 -5.173 26.457 255 0 0
-74.141 -4.412 26.269 255 0 0
-73.599 -3.574 26.059 255 0 0
-73.094 -2.784 25.902 255 0 0
-72.578 -2.009 25.714 255 0 0
-72.073 -1.203 25.509 255 0 0
-71.624 -0.510 25.309 255 0 0
-75.956 -7.228 27.189 255 0 0
-75.036 -5.794 26.830 255 0 0
-74.498 -4.964 26.621 255 0 0
-73.850 -3.964 26.367 255 0 0
-73.390 -3.228 26.195 255 0 0
-72.821 -2.357 25.996 255 0 0
-72.346 -1.634 25.823 255 0 0
-71.858 -0.890 25.641 255 0 0
-75.462 -6.458 27.191 255 0 0
-74.749 -5.333 26.919 255 0 0
-74.112 -4.359 26.659 255 0 0
-73.581 -3.547 26.468 255 0 0
-73.055 -2.748 26.269 255 0 0
-72.595 -2.031 26.100 255 0 0
-72.081 -1.226 25.912 255 0 0
-71.626 -0.525 25.749 255 0 0
-75.469 -6.476 27.458 255 0 0
-74.755 -5.339 27.120 255 0 0
-74.120 -4.372 26.923 255 0 0
-73.588 -3.561 26.729 255 0 0
-72.994 -2.761 26.502 255 0 0
-72.592 -2.027 26.330 255 0 0
-72.089 -1.235 26.169 255 0 0
-71.629 -0.493 25.943 255 0 0
-75.478 -6.494 27.726 255 0 0
-74.759 -5.347 27.388 255 0 0
-74.143 -4.406 27.169 255 0 0
-73.595 -3.571 26.925 255 0 0
-72.996 -2.772 26.695 255 0 0
-72.564 -2.004 26.529 255 0 0
-72.091 -1.242 26.360 255 0 0
-71.600 -0.458 26.143 255 0 0
-75.575 -6.619 27.905 255 0 0
-74.772 -5.357 27.659 255 0 0
-74.115 -4.370 27.338 255 0 0
-73.605 -3.582 27.123 255 0 0
-72.993 -2.784 26.886 255 0 0
-72.577 -2.017 26.724 255 0 0
-72.100 -1.249 26.554 255 0 0
-71.586 -0.442 26.370 255 0 0
-75.036 -5.797 27.947 255 0 0
-74.273 -4.597 27.593 255 0 0
-73.745 -3.790 27.404 255 0 0
-73.089 -2.803 27.178 255 0 0
-72.590 -2.033 26.983 255 0 0
-72.107 -1.259 26.811 255 0 0
-71.572 -0.428 26.598 255 0 0
